ply
format ascii 1.0
element vertex 1948
property float x
property float y
property float z
end_header
-20.3138 3.1419 -3.6693 
-20.2926 3.1686 -3.8598 
-20.2999 3.163 -3.9771 
-20.3092 3.1099 -3.9796 
-20.3115 3.1145 -4.0189 
-20.3088 3.1571 -4.1259 
-20.309 3.1224 -4.1209 
-20.292 3.2175 -4.2154 
-20.2874 3.1366 -4.225 
-20.2555 3.131 -4.3969 
-20.242 3.2127 -4.4133 
-21.1219 3.1775 -0.8277 
-21.2033 2.9741 -0.8858 
-21.0358 3.1948 -0.9503 
-20.8196 3.1442 -1.5585 
-20.8166 3.0284 -1.6815 
-20.7366 3.2222 -1.6978 
-20.6612 3.264 -1.8725 
-20.7238 3.0447 -1.9265 
-20.6471 3.1806 -2.0226 
-20.6068 3.0404 -2.2887 
-20.5489 3.1016 -2.4185 
-20.584 3.2177 -2.1788 
-30.0315 6.4976 -2.9393 
-30.1145 6.4529 -3.0468 
-30.0116 6.4541 -2.8285 
-30.0538 6.5301 -3.0288 
-30.1728 6.6383 -3.429 
-30.2759 6.4149 -3.4385 
-30.128 6.5751 -3.2325 
-20.2567 3.4641 -5.5076 
-20.2276 3.4697 -5.2619 
-20.2321 3.3315 -5.2299 
-20.2425 3.3714 -4.3097 
-20.2297 3.3156 -4.4839 
-20.2282 3.4108 -4.5151 
-29.8473 6.5236 -1.4606 
-29.8785 6.4728 -1.6006 
-29.8848 6.4226 -1.2651 
-29.8908 6.4666 -1.943 
-29.849 6.5375 -1.8044 
-29.8305 6.5619 -2.0895 
-26.8839 5.1729 1.4853 
-27.0919 5.3051 1.4409 
-27.1178 5.0757 1.4202 
-27.2474 5.2435 1.3977 
-26.6927 5.077 1.5339 
-26.7837 5.1862 1.5129 
-26.315 4.9714 1.6469 
-26.2869 4.8626 1.6236 
-21.2425 3.4995 -0.4479 
-21.287 3.7987 -0.2617 
-21.1681 3.6025 -0.5027 
-21.2086 3.7009 -0.398 
-21.1049 3.5504 -0.6337 
-21.025 3.497 -0.7816 
-20.9303 3.6296 -0.8631 
-20.9088 3.5201 -0.9802 
-22.8061 5.1152 -9.6295 
-22.7892 5.0272 -9.5822 
-29.7206 6.7794 -1.4669 
-29.7953 6.5791 -1.2298 
-29.7454 6.6921 -1.2809 
-29.8121 6.5798 -1.3446 
-29.7808 6.6634 -1.8337 
-29.8074 6.6134 -1.6311 
-29.7384 6.7556 -1.6062 
-29.7 6.7503 -2.5417 
-29.6914 6.7837 -2.6379 
-29.7207 6.7159 -2.5011 
-29.872 6.7467 -2.972 
-29.7838 6.7399 -2.7811 
-29.754 6.9016 -2.9338 
-29.664 6.8598 -1.3888 
-29.6888 6.852 -1.6894 
-29.5041 6.904 -0.8389 
-29.5359 6.9162 -0.9569 
-29.6161 6.7351 -0.8887 
-29.6352 6.814 -1.1037 
-29.6127 6.8968 -1.2185 
-27.2831 6.7989 -9.5541 
-27.1245 6.7917 -9.6346 
-27.183 6.6663 -9.6201 
-26.9852 6.7054 -9.6958 
-20.1543 3.855 -3.9127 
-20.1334 3.9438 -4.011 
-20.132 3.97 -3.7876 
-20.1325 3.9148 -4.1874 
-20.0823 4.1367 -4.2369 
-20.3776 4.4273 -7.0526 
-20.2962 4.4739 -6.8652 
-20.3075 4.4201 -6.8564 
-20.2247 4.2776 -6.3887 
-20.2844 4.1 -6.4547 
-20.2031 4.4309 -6.4557 
-20.2602 4.3353 -6.5652 
-28.9077 7.4595 -7.509 
-28.7555 7.5387 -7.7435 
-28.8642 7.2873 -7.7829 
-28.6848 6.5636 0.5704 
-28.6206 6.5047 0.651 
-28.5418 6.7219 0.6653 
-28.8199 6.6589 0.3874 
-28.7782 6.7507 0.3973 
-29.8353 7.5561 -4.0191 
-29.8457 7.6132 -4.3051 
-29.8808 7.5424 -4.2398 
-21.3122 4.3622 0.0087 
-21.4348 4.4266 0.1917 
-21.4562 4.3331 0.1924 
-28.7759 7.5581 -7.672 
-28.7202 7.6611 -7.6725 
-28.5948 7.7687 -7.8333 
-28.5296 7.6092 -8.1161 
-28.529 7.7446 -7.9965 
-28.9501 7.8316 -6.9151 
-28.8984 7.7906 -7.0623 
-29.0083 7.7281 -6.939 
-28.6942 7.7367 -7.6251 
-28.7835 7.649 -7.5329 
-28.7504 7.7762 -7.4004 
-29.161 7.8356 -6.5037 
-28.9532 7.9987 -6.6899 
-29.0961 7.7706 -6.7303 
-28.8562 7.7354 -7.2337 
-28.7701 7.9441 -7.0542 
-19.9461 4.8213 -5.1767 
-19.958 4.7973 -5.5084 
-19.9427 4.8719 -5.3602 
-20.0036 4.6964 -3.0033 
-19.9991 4.7517 -2.8196 
-20.045 4.6013 -2.7447 
-20.5848 5.3214 -7.7684 
-20.6759 5.2339 -7.8567 
-20.6402 5.3875 -7.8345 
-20.9159 5.4998 -8.3165 
-21.0114 5.6899 -8.4957 
-20.8916 5.6429 -8.3393 
-20.259 4.6549 -1.4549 
-20.3516 4.6732 -1.1555 
-20.3229 4.592 -1.3411 
-20.2835 4.5607 -1.5239 
-20.4918 5.3897 -7.7103 
-20.7087 5.3113 -7.8946 
-20.5441 5.5704 -7.8622 
-20.8845 5.3252 -8.2244 
-20.7419 5.5421 -8.1084 
-29.5286 8.1809 -4.3255 
-29.5966 8.0585 -4.3024 
-29.5261 8.1443 -4.0987 
-29.6032 8.0716 -4.4617 
-29.5158 8.2198 -4.4462 
-29.5138 8.2295 -4.5308 
-29.4952 8.2401 -4.6965 
-29.5442 8.1354 -4.7893 
-20.726 5.4749 -8.016 
-20.6026 5.6329 -7.9697 
-28.4442 8.2469 -7.1379 
-28.5476 8.1131 -7.1714 
-28.5621 8.1795 -7.046 
-28.7664 7.7055 -0.1752 
-28.804 7.7689 -0.3329 
-28.8679 7.6245 -0.2881 
-28.9025 7.9111 -0.825 
-28.9989 7.8388 -1.0093 
-29.0394 7.7162 -0.8963 
-29.0286 7.9324 -1.3914 
-29.1079 7.8175 -1.4782 
-29.0345 7.8815 -1.2525 
-29.0263 7.9733 -1.6079 
-27.5497 8.2077 -9.0607 
-27.8039 8.1083 -8.8662 
-27.644 8.2432 -8.9584 
-27.4714 8.1589 -9.1396 
-27.5634 8.1293 -9.0819 
-22.6501 6.595 -9.8492 
-22.7512 6.4997 -9.8776 
-22.5166 6.5861 -9.7863 
-22.6445 6.5253 -9.8325 
-22.5891 6.5736 -9.8161 
-28.8229 8.101 -2.9435 
-28.9065 8.034 -2.9782 
-28.8874 7.973 -2.8863 
-28.879 8.4705 -6.2002 
-29.0432 8.3622 -6.0023 
-28.9843 8.5081 -5.9311 
-22.6897 6.8373 -9.9212 
-22.7015 6.6918 -9.8935 
-22.5679 6.7941 -9.8518 
-20.1141 5.0801 -1.4927 
-20.014 5.1326 -1.7927 
-19.9962 5.2593 -1.6594 
-19.9764 5.376 -1.5639 
-19.9777 5.1403 -2.0667 
-19.9706 5.2287 -1.9044 
-19.9878 5.0542 -2.1896 
-19.9125 5.1219 -2.7826 
-19.8732 5.2956 -3.0021 
-19.8629 5.3419 -2.8617 
-19.9815 5.4527 -6.3728 
-20.0121 5.4775 -6.5783 
-20.0021 5.7498 -6.6634 
-19.9845 5.7154 -6.4902 
-20.0159 5.6936 -6.7167 
-28.5144 8.0842 -0.103 
-28.6038 7.8787 -0.0332 
-28.5279 7.8531 0.1263 
-20.1241 6.0443 -7.2771 
-20.2394 5.6714 -7.3684 
-20.2134 5.9605 -7.4345 
-21.6864 6.6741 -9.3099 
-21.8495 6.4773 -9.3334 
-21.9394 6.5729 -9.4092 
-26.7098 7.1902 1.6313 
-26.5047 7.1336 1.6768 
-26.4047 7.2182 1.6919 
-26.9897 8.4239 -9.3416 
-27.0366 8.2642 -9.3662 
-27.0534 8.3622 -9.3254 
-26.9058 8.3582 -9.4016 
-26.7569 8.3208 -9.4805 
-26.8502 8.2775 -9.448 
-26.507 8.21 -9.5964 
-26.6202 8.2817 -9.5427 
-19.9816 5.8742 -6.2944 
-19.9739 5.7024 -6.1146 
-19.978 5.778 -6.4182 
-19.9842 5.9022 -6.5182 
-28.7368 8.8502 -6.0165 
-28.7133 8.7359 -6.1884 
-28.8076 8.6726 -6.0992 
-26.0995 7.3324 1.7562 
-26.1471 6.9818 1.7808 
-26.0704 7.168 1.814 
-25.5366 8.1196 -9.8025 
-25.4377 8.2108 -9.7713 
-22.7006 7.1346 -10.0254 
-22.4432 7.0612 -9.8479 
-22.3229 7.0928 -9.7942 
-22.359 6.9656 -9.7777 
-19.9796 5.5512 -1.3436 
-20.0344 5.4312 -1.2137 
-20.0073 5.4079 -1.3389 
-25.4001 8.2109 -9.7815 
-28.5072 8.428 -2.7947 
-28.5124 8.4229 -2.6742 
-28.3614 8.5837 -2.7414 
-28.5428 8.6179 -3.1262 
-28.5868 8.4728 -3.0428 
-28.4873 8.5733 -3.0353 
-27.8224 8.852 -8.301 
-27.9318 8.7573 -8.2027 
-27.8744 8.9208 -8.1286 
-27.6717 8.7066 -8.6167 
-27.7734 8.8446 -8.3821 
-27.6033 8.8793 -8.5664 
-21.082 6.7577 -8.8871 
-21.1321 6.6011 -8.8792 
-25.7188 8.4005 -9.6678 
-25.6548 8.3674 -9.6842 
-25.6256 8.3291 -9.6948 
-25.5491 8.2829 -9.7241 
-25.6081 8.2804 -9.7089 
-25.4662 8.2785 -9.7462 
-25.4671 8.324 -9.7353 
-22.1339 7.0962 -9.7014 
-22.0518 7.2121 -9.5154 
-22.0778 7.055 -9.6666 
-21.9701 7.1643 -9.513 
-21.9377 7.0184 -9.5789 
-28.8125 9.0395 -5.52 
-28.9285 8.9509 -5.3121 
-28.7672 9.148 -5.3784 
-28.6857 9.0471 -5.8137 
-28.4834 9.2221 -5.9549 
-28.6082 8.9997 -6.0577 
-28.5334 8.9728 -6.2092 
-28.5116 9.0859 -6.107 
-28.3986 8.9446 -6.4059 
-28.4324 9.0812 -6.2241 
-26.9268 8.8508 -9.2035 
-27.0214 8.6822 -9.22 
-27.0478 8.8349 -9.1358 
-26.7686 8.7954 -9.315 
-26.8388 8.7558 -9.2939 
-26.8583 8.791 -9.2674 
-26.566 8.6667 -9.4659 
-26.7126 8.7894 -9.3476 
-26.5971 8.7539 -9.4169 
-26.4531 8.7537 -9.4788 
-26.4815 8.6878 -9.4938 
-26.3816 8.7263 -9.516 
-26.3762 8.6471 -9.5461 
-20.2466 5.6428 -0.5302 
-20.2206 5.5678 -0.6153 
-20.1144 5.7766 -0.6805 
-20.0865 5.5407 -0.9165 
-19.9844 5.7871 -0.9916 
-20.0781 5.7518 -0.7729 
-24.1654 7.7821 -7.5978 
-24.0933 7.7599 -7.6497 
-24.1582 7.7808 -7.6906 
-24.1022 7.7461 -7.7527 
-24.1685 7.7921 -7.846 
-24.012 7.7348 -7.707 
-24.0405 7.7198 -7.7912 
-24.1109 7.7491 -7.8848 
-23.946 7.7115 -7.8333 
-24.0436 7.7086 -7.9733 
-24.1764 7.8052 -8.0409 
-23.9845 7.6876 -7.9938 
-23.891 7.7088 -7.9011 
-24.1114 7.7514 -8.0314 
-24.1646 7.79 -8.1805 
-23.8975 7.6825 -8.0753 
-23.9522 7.6811 -8.0539 
-23.8435 7.7155 -7.9368 
-23.7936 7.7161 -8.0214 
-23.7635 7.7068 -8.1627 
-23.8403 7.6688 -8.2315 
-23.7851 7.6645 -8.3335 
-23.6909 7.7083 -8.3323 
-23.7134 7.7259 -8.18 
-23.6696 7.7037 -8.4162 
-23.7874 7.6525 -8.4644 
-23.6742 7.6977 -8.4997 
-23.4833 7.2894 -4.1557 
-23.4834 7.3112 -4.3683 
-23.5242 7.3127 -4.2492 
-23.559 7.3383 -4.334 
-23.5341 7.3307 -4.4236 
-23.6088 7.3772 -4.6006 
-23.4298 7.28 -4.1748 
-23.4156 7.2962 -4.2975 
-23.4205 7.2958 -4.5149 
-23.3866 7.3078 -4.4593 
-23.4887 7.2855 -4.7024 
-23.5549 7.3172 -4.717 
-28.4988 9.3054 -5.7745 
-28.6948 9.1188 -5.6628 
-28.6442 9.2307 -5.5718 
-28.3906 9.1813 -6.1601 
-26.2314 7.6644 1.6802 
-26.03 7.5335 1.7363 
-26.0682 7.6667 1.7049 
-25.9932 7.597 1.7277 
-25.857 7.5672 1.7515 
-25.8289 7.6508 1.7431 
-25.7288 7.4692 1.8004 
-25.7729 7.5533 1.7718 
-25.6808 7.4946 1.799 
-20.1916 6.567 -7.6378 
-20.1361 6.6949 -7.5328 
-20.1494 6.5115 -7.5224 
-20.3416 6.5728 -7.9243 
-20.403 6.682 -8.0472 
-20.3288 6.7667 -7.9574 
-24.3121 8.2027 -8.8908 
-24.3078 8.0959 -8.7676 
-24.2586 8.0901 -8.823 
-24.2252 8.2026 -8.9678 
-24.1756 8.0838 -8.8763 
-24.0771 8.093 -8.9226 
-24.1704 8.1726 -8.9704 
-25.1872 8.5332 -9.7673 
-25.2602 8.4646 -9.7734 
-25.1604 8.6004 -9.7478 
-25.1321 8.513 -9.7802 
-25.0964 8.5958 -9.7529 
-25.0432 8.558 -9.7748 
-25.0675 8.5138 -9.7919 
-24.5566 8.0303 -6.3675 
-24.4654 8.0413 -6.2428 
-24.3842 7.9737 -6.2166 
-24.2063 7.8658 -6.2113 
-24.2873 7.9216 -6.1769 
-24.2173 7.9262 -6.1207 
-24.1266 7.875 -6.1855 
-23.7965 7.6856 -4.4278 
-23.738 7.5596 -4.3008 
-23.7245 7.5603 -4.4776 
-25.1292 8.3724 -6.8072 
-25.0206 8.2297 -6.7359 
-25.0075 8.2027 -6.8035 
-25.0463 8.2641 -6.8699 
-24.9426 8.2419 -7.0774 
-25.0891 8.3951 -7.0144 
-24.9803 8.2347 -7.0072 
-24.9409 8.3338 -7.1598 
-24.9026 8.2441 -7.1287 
-24.7455 8.1668 -7.2511 
-24.6994 8.2665 -7.3742 
-24.5876 8.1871 -7.4549 
-19.9659 6.0401 -0.8291 
-20.064 6.0437 -0.6196 
-20.077 5.9377 -0.642 
-26.9609 8.3749 1.3737 
-27.0644 8.2469 1.3618 
-26.9541 8.1821 1.4216 
-26.8565 8.1933 1.4486 
-26.8274 8.063 1.4799 
-26.5924 8.1418 1.5223 
-26.46 8.064 1.561 
-26.5232 7.9801 1.5654 
-22.7096 7.3893 -4.2613 
-22.6738 7.2857 -4.1033 
-22.6024 7.3836 -4.2534 
-22.6858 7.2661 -3.8175 
-22.5373 7.2662 -3.7252 
-22.5708 7.2334 -3.812 
-22.6269 7.304 -3.7138 
-22.4579 7.261 -3.7221 
-22.4281 7.2389 -3.7976 
-22.541 7.2157 -3.8761 
-22.4002 7.2349 -3.8611 
-22.5577 7.2159 -3.9691 
-22.395 7.2371 -3.9429 
-22.5617 7.2503 -4.0712 
-22.4346 7.2409 -4.0208 
-22.4174 7.2629 -4.068 
-22.5039 7.2958 -4.1475 
-26.1679 9.1183 -9.3862 
-26.2386 9.0706 -9.4033 
-26.3058 9.1911 -9.2978 
-26.0799 9.0284 -9.4649 
-22.4003 7.7922 -9.8433 
-22.4934 7.8889 -9.866 
-22.4633 7.9054 -9.8541 
-22.8925 8.0341 -9.9335 
-22.77 8.0023 -9.92 
-22.8575 7.9788 -9.9509 
-22.6573 7.9639 -9.8992 
-22.716 7.9319 -9.9278 
-22.6291 7.8811 -9.912 
-22.1067 7.7654 -9.7078 
-22.1331 7.7349 -9.7213 
-22.1651 7.8297 -9.7355 
-22.2051 7.7749 -9.7586 
-22.1637 7.676 -9.7316 
-22.3025 7.8381 -9.8025 
-22.31 7.7741 -9.8099 
-22.2429 7.6965 -9.7783 
-22.0746 7.7278 -9.6887 
-22.104 7.6151 -9.6805 
-22.0762 7.6369 -9.6732 
-28.1955 9.3173 -3.6327 
-28.3094 9.1663 -3.5243 
-28.1564 9.2396 -3.4661 
-28.3192 9.2696 -3.7029 
-28.283 9.4271 -3.9384 
-28.4626 9.3085 -3.9735 
-28.5506 9.3118 -4.1177 
-22.3012 7.2959 -4.0111 
-22.4413 7.3436 -4.2138 
-22.3955 7.3295 -4.1838 
-22.3177 7.3268 -4.1398 
-22.2906 7.2847 -3.915 
-24.06 8.0144 -5.2765 
-24.0901 8.0364 -5.5851 
-24.1066 8.0613 -5.4861 
-24.0187 7.9925 -5.8853 
-23.9133 8.03 -5.7488 
-23.9578 8.006 -5.8829 
-24.0135 8.0065 -5.7845 
-23.9006 8.0313 -5.8922 
-23.9407 7.9865 -6.0454 
-23.8604 8.0359 -6.0319 
-23.8644 7.9878 -6.168 
-25.1727 8.5898 -6.501 
-25.0921 8.4261 -6.5528 
-25.1415 8.4496 -6.6257 
-25.2309 8.5727 -6.6583 
-25.181 8.4635 -6.7371 
-25.2395 8.5541 -6.7438 
-25.2062 8.4977 -6.8637 
-25.1901 8.5033 -6.9582 
-25.3423 8.7149 -6.9194 
-25.2704 8.669 -7.058 
-25.1663 8.5436 -7.0668 
-25.1905 8.615 -7.1102 
-25.0748 8.4918 -7.1378 
-20.6946 7.0813 -8.6054 
-20.5942 7.3705 -8.5721 
-20.5938 7.1407 -8.5048 
-28.2847 9.4792 -4.0541 
-28.5163 9.3931 -4.2472 
-28.1153 9.1948 -2.0374 
-28.136 9.1041 -2.1904 
-28.2433 9.0373 -2.1012 
-28.0993 9.0536 -2.3344 
-28.0224 9.1998 -2.2077 
-22.2785 7.3679 -4.2156 
-22.1944 7.3534 -4.0001 
-22.2144 7.3589 -4.1004 
-22.2242 7.3742 -4.1874 
-24.164 8.1296 -5.4207 
-24.1023 8.0722 -5.1976 
-27.0982 9.5167 -8.6784 
-27.2328 9.3975 -8.6283 
-27.2263 9.4797 -8.5562 
-27.0808 9.4317 -8.7616 
-25.8881 9.1377 -9.3419 
-26.0135 9.1175 -9.3912 
-26.0679 9.1811 -9.3384 
-22.0876 6.8744 1.3187 
-22.201 6.8585 1.3775 
-22.1026 6.7725 1.3334 
-21.934 6.7465 1.243 
-21.8069 6.6663 1.1886 
-21.7295 6.7521 1.1401 
-22.9691 7.8907 -5.2183 
-23.1093 7.8028 -5.1826 
-22.8865 7.6826 -5.1196 
-22.6924 7.6783 -5.1095 
-22.706 7.7948 -5.1707 
-22.5879 7.534 -4.8511 
-22.4931 7.5611 -4.775 
-22.4544 7.5923 -4.9095 
-23.0321 8.1326 -8.4608 
-23.1207 8.0706 -8.5552 
-22.9806 8.1437 -8.6087 
-23.1563 8.0591 -8.6807 
-23.0271 8.1241 -8.705 
-22.9729 8.1914 -8.8914 
-23.1037 8.1633 -8.9221 
-23.0422 8.1339 -8.8084 
-23.1297 8.1109 -8.8398 
-23.3505 8.3407 -9.1635 
-23.5616 8.3209 -9.142 
-23.451 8.2914 -9.1093 
-23.4462 8.3997 -9.2534 
-23.5681 8.375 -9.2139 
-23.8097 8.4507 -9.3501 
-23.7421 8.417 -9.2834 
-23.6367 8.4625 -9.4111 
-23.8278 8.489 -9.4946 
-23.9242 8.4978 -9.5005 
-23.8428 8.4758 -9.4161 
-23.6581 8.4859 -9.5415 
-23.54 8.429 -9.3176 
-23.1171 8.3001 -9.105 
-23.2688 8.2434 -9.0522 
-23.1676 8.1917 -8.9847 
-27.8843 9.1852 -3.1841 
-27.7498 9.2957 -3.2173 
-27.9168 9.3063 -3.3485 
-23.7759 7.9337 -3.1589 
-23.8716 7.9072 -3.1726 
-23.8594 7.9405 -3.0377 
-23.8247 7.8834 -3.2984 
-23.6733 7.9125 -3.2838 
-23.733 7.873 -3.3805 
-23.6839 7.8536 -3.4391 
-23.5272 7.8705 -3.3929 
-23.5847 7.8359 -3.4716 
-23.3563 7.8122 -3.455 
-23.1848 7.7779 -3.4741 
-23.3637 7.736 -3.5634 
-26.5315 8.4523 1.4656 
-26.4194 8.2537 1.528 
-26.3104 8.524 1.4837 
-26.2734 8.3071 1.5412 
-19.906 6.4729 -0.7116 
-19.9006 6.2564 -0.8854 
-19.851 6.4747 -0.9169 
-19.8479 6.2757 -1.0952 
-19.8158 6.4127 -1.1543 
-19.7739 6.3971 -1.4649 
-19.7724 6.506 -1.3484 
-19.7339 6.5992 -2.6279 
-19.7366 6.4226 -2.6542 
-19.7477 6.5466 -2.7767 
-19.7907 6.5816 -2.957 
-19.7712 6.6604 -2.8676 
-19.8546 6.6077 -3.2097 
-21.9565 7.4594 -4.3119 
-21.9963 7.4462 -4.2297 
-21.9098 7.4672 -4.2159 
-23.4145 8.2423 -6.3696 
-23.5012 8.1508 -6.49 
-23.5455 8.1905 -6.2712 
-23.3526 8.2302 -6.5264 
-23.3694 8.1795 -6.6766 
-23.4017 8.1497 -6.8663 
-23.3027 8.2008 -6.7438 
-23.2218 8.2277 -6.8693 
-23.2459 8.2272 -6.96 
-23.3859 8.1718 -6.945 
-23.2816 8.2366 -7.0433 
-23.4575 8.2195 -7.1329 
-23.493 8.2366 -7.2471 
-23.3819 8.2825 -7.2598 
-25.2271 8.0114 1.7407 
-25.1734 7.9778 1.7524 
-25.1501 8.0671 1.7321 
-25.0895 8.02 1.7458 
-25.1055 7.9495 1.763 
-25.0757 7.9448 1.7659 
-23.6083 7.9471 -3.1735 
-23.7126 7.9859 -2.9615 
-23.5923 7.9884 -3.0072 
-23.5085 7.9748 -3.0732 
-23.4545 7.9145 -3.2661 
-23.3772 7.8746 -3.3424 
-23.3176 7.9366 -3.1785 
-23.239 7.8924 -3.2749 
-23.2219 7.8397 -3.3828 
-23.0961 7.8588 -3.3262 
-26.2093 9.5238 -9.1042 
-26.0488 9.3472 -9.2182 
-26.1244 9.316 -9.2371 
-23.2552 8.2826 -6.5289 
-23.2429 8.2493 -6.6534 
-23.1394 8.2805 -6.7289 
-23.1796 8.2608 -7.0319 
-23.2044 8.2859 -7.144 
-23.2039 7.6081 0.1164 
-23.0793 7.5916 0.2963 
-23.1398 7.5172 0.0391 
-20.5409 6.5505 0.3236 
-20.4629 6.6984 0.271 
-20.5527 6.7063 0.3588 
-20.177 6.6453 -0.0935 
-20.1109 6.5392 -0.2369 
-20.0744 6.6416 -0.2486 
-19.9783 6.6035 -0.4316 
-20.0229 6.4783 -0.4078 
-19.8158 6.5714 -0.991 
-19.8605 6.5958 -0.7845 
-21.687 7.5638 -3.9898 
-21.8612 7.5214 -3.9307 
-21.6748 7.577 -3.8666 
-21.8788 7.4904 -4.1135 
-21.7014 7.5236 -4.1618 
-19.9645 6.9207 -3.3221 
-20.026 6.775 -3.5696 
-20.0351 6.8983 -3.5072 
-20.1961 7.0626 -3.7507 
-20.1352 6.9262 -3.7148 
-20.2035 6.9538 -3.8492 
-25.3974 8.9217 -6.5426 
-25.4264 9.0391 -6.4362 
-25.2849 8.8778 -6.3048 
-25.5224 9.0874 -6.6234 
-25.5677 9.0439 -7.0304 
-25.5685 9.0757 -7.0913 
-25.7191 9.2416 -7.0819 
-25.6357 9.1913 -7.1473 
-25.547 9.0988 -7.1612 
-25.5698 9.182 -7.2257 
-25.475 9.0473 -7.2024 
-25.4286 9.0939 -7.2941 
-25.3613 8.9377 -7.2307 
-22.5617 7.3965 1.4163 
-22.4438 7.3482 1.4062 
-22.3219 7.3131 1.3666 
-22.4417 7.4002 1.3761 
-22.1416 7.2236 1.2957 
-23.2477 7.695 0.1788 
-23.3205 7.7126 0.0983 
-22.9994 7.5779 0.3685 
-23.0359 7.5368 0.2451 
-22.9288 7.5466 0.3654 
-22.9286 7.4932 0.2339 
-22.8695 7.4823 0.2279 
-23.4049 8.036 -2.8712 
-23.5104 8.032 -2.8495 
-23.5656 8.0526 -2.7378 
-27.3001 9.7965 -6.7449 
-27.2925 9.7085 -6.9013 
-27.3954 9.7262 -6.7393 
-27.1344 9.726 -7.0611 
-27.2067 9.6373 -7.1242 
-27.2299 9.6919 -7.0058 
-27.1143 9.693 -7.1499 
-27.2597 9.7206 -7.8538 
-27.203 9.7547 -7.7456 
-27.1254 9.8436 -7.8062 
-27.1553 9.8238 -7.8979 
-22.8005 8.3777 -7.9865 
-22.7225 8.3619 -8.0993 
-22.9165 8.3598 -7.9889 
-22.682 8.3167 -8.3353 
-22.8309 8.324 -8.1595 
-22.601 8.3505 -8.2527 
-22.5478 8.3413 -8.3788 
-24.8288 9.1387 -8.7399 
-24.8448 9.0998 -8.9382 
-24.9329 9.2666 -8.7655 
-24.3589 8.0976 -0.0529 
-24.4431 8.2018 -0.0333 
-24.3932 8.1472 0.0206 
-24.346 8.0834 -0.1108 
-24.4632 8.2299 -0.0446 
-24.4075 8.1858 -0.1628 
-24.5147 8.309 -0.0607 
-24.4228 8.2642 -0.2356 
-24.3146 8.0794 -0.2431 
-24.2951 8.0866 -0.3102 
-24.3168 8.1906 -0.3641 
-25.4791 8.9506 -3.9823 
-25.6135 8.9451 -3.8446 
-25.4613 8.7889 -3.857 
-25.3962 8.9902 -4.0946 
-25.3008 8.8621 -4.0504 
-20.8872 7.3834 -4.4239 
-20.8528 7.4207 -4.3429 
-20.7485 7.3647 -4.3274 
-20.7888 7.3043 -4.4265 
-22.6972 8.3189 -7.1645 
-22.7428 8.3062 -7.2335 
-22.8091 8.3267 -7.0668 
-22.907 8.3095 -7.157 
-22.7522 8.3127 -7.3267 
-22.8864 8.3247 -7.2781 
-22.6332 8.3039 -7.3014 
-22.9854 8.3439 -7.3112 
-22.9021 8.3643 -7.4277 
-22.9758 8.3846 -7.4687 
-22.9775 8.4018 -7.6304 
-22.8608 8.3909 -7.6141 
-22.9729 8.4011 -7.7393 
-22.9269 8.4009 -7.749 
-27.9599 9.925 -5.6165 
-27.8954 10.0247 -5.4178 
-27.8139 10.0519 -5.5388 
-27.8799 9.8932 -5.8663 
-27.9523 9.8979 -5.7198 
-27.8705 9.972 -5.6831 
-27.7623 9.9627 -5.8915 
-27.5961 9.9978 -6.0472 
-27.7618 9.9088 -6.0041 
-20.445 6.9658 0.2475 
-20.6512 6.9568 0.429 
-20.6177 6.8689 0.4125 
-20.4363 6.8399 0.2518 
-20.316 6.9369 0.1194 
-20.2908 6.8264 0.1 
-20.2028 6.7549 -0.019 
-20.1583 6.8386 -0.0785 
-22.8997 8.3433 -5.7183 
-23.0776 8.3089 -5.731 
-22.8997 8.2761 -5.6111 
-22.6945 8.3398 -5.6381 
-23.1695 8.3269 -5.8266 
-23.0303 8.3623 -5.825 
-23.2243 8.3502 -5.9476 
-23.007 8.3963 -5.8994 
-23.1945 8.3747 -6.0332 
-20.196 7.5651 -6.2884 
-20.1993 7.4294 -6.1613 
-20.1593 7.5358 -6.3942 
-27.1719 9.9399 -6.6588 
-27.327 9.8809 -6.5893 
-25.017 9.3844 -8.7228 
-24.9726 9.2686 -8.8991 
-25.0666 9.3603 -8.9288 
-25.6131 9.5439 -9.0802 
-25.4809 9.4955 -9.0886 
-25.6743 9.5076 -9.1171 
-25.4122 9.5082 -9.0472 
-25.2439 9.4252 -9.0521 
-25.2555 9.3735 -9.1273 
-22.7494 7.6374 1.3059 
-22.5687 7.6198 1.2714 
-22.7354 7.6806 1.2396 
-22.514 7.5853 1.2865 
-22.3565 7.527 1.2753 
-22.1801 7.4381 1.2522 
-22.2959 7.4361 1.2979 
-22.1503 7.3182 1.2796 
-22.0541 7.4379 1.2021 
-20.1918 6.9316 -0.0392 
-20.088 6.8701 -0.1872 
-20.0409 6.9558 -0.2672 
-19.9825 6.7702 -0.3662 
-19.9338 6.9375 -0.4592 
-19.8779 6.6889 -0.6541 
-19.87 6.8859 -0.6096 
-19.8226 6.8674 -0.7687 
-20.9176 7.4494 -4.3366 
-20.9196 7.567 -4.1457 
-20.8412 7.5554 -4.1356 
-21.6978 7.9488 -5.1475 
-21.6978 7.8323 -4.9692 
-21.6051 7.8516 -4.9623 
-21.0805 7.6796 -4.8807 
-21.0338 7.5822 -4.8366 
-20.9388 7.6449 -5.0151 
-25.754 9.4901 -6.5291 
-25.5904 9.3796 -6.2899 
-25.5576 9.2174 -6.512 
-26.1498 9.2862 -3.338 
-26.0824 9.2377 -3.2768 
-26.0262 9.166 -3.3337 
-26.1444 9.3006 -3.2556 
-26.0264 9.2221 -3.2367 
-26.1802 9.3176 -3.3727 
-26.0544 9.1897 -3.4078 
-26.221 9.3731 -3.4442 
-26.0544 9.2075 -3.477 
-26.0517 9.2618 -3.5849 
-26.1863 9.3921 -3.5356 
-23.8998 8.245 -1.2423 
-24.0224 8.4321 -1.1666 
-23.9668 8.3481 -1.1177 
-23.0875 8.1204 -1.6879 
-23.1532 8.1708 -1.7261 
-23.1653 8.0602 -1.7023 
-23.2568 8.1206 -1.7447 
-23.0233 8.0734 -1.66 
-23.245 8.207 -1.8239 
-23.368 8.1589 -1.8771 
-23.3082 8.1619 -1.816 
-23.271 8.2188 -1.8903 
-23.4207 8.1543 -1.9466 
-23.3553 8.2027 -1.9896 
-23.2505 8.2428 -1.9977 
-22.5958 8.0735 -2.8907 
-22.7065 8.029 -2.9732 
-22.747 8.0945 -2.8514 
-22.4595 8.0288 -2.9489 
-22.6388 7.9783 -3.0472 
-26.8414 10.0488 -7.6503 
-26.9365 9.8808 -7.5109 
-26.8486 9.9358 -7.4831 
-26.7949 10.0131 -7.5344 
-26.959 9.9655 -7.693 
-27.0087 9.9513 -7.7923 
-26.9151 10.028 -7.7494 
-26.9109 10.0514 -7.8763 
-27.0242 9.9477 -7.9004 
-26.7591 10.0821 -8.2986 
-26.8197 10.016 -8.3468 
-26.8858 10.0264 -8.1805 
-25.3469 9.3419 -7.5105 
-25.2921 9.4311 -7.6009 
-25.4953 9.5578 -7.5513 
-25.1946 9.3812 -7.6365 
-25.236 9.4865 -7.6876 
-25.0747 9.3596 -7.7348 
-25.1327 9.4515 -7.7655 
-25.0725 9.4411 -7.8437 
-24.9348 9.3177 -7.8825 
-25.0525 9.4477 -7.9058 
-25.0539 9.4741 -7.9958 
-24.9039 9.3135 -7.9876 
-23.3622 8.0007 0.3862 
-23.4399 8.1142 0.4225 
-23.37 8.0665 0.5209 
-23.4715 8.0653 0.2859 
-23.5094 8.1456 0.3689 
-22.6536 7.7187 1.1349 
-22.4942 7.671 1.1834 
-22.5433 7.7103 1.1238 
-22.701 7.7442 1.0577 
-22.569 7.7401 1.0573 
-22.7713 7.7486 1.0092 
-22.6352 7.7549 0.9839 
-22.6667 7.7518 0.8979 
-22.7852 7.7398 0.8916 
-22.5376 7.764 0.9745 
-22.5655 7.7709 0.8638 
-22.7176 7.7324 0.8182 
-22.5781 7.7594 0.7751 
-22.7106 7.7101 0.7233 
-22.5552 7.7494 0.6858 
-22.4231 7.7255 1.0783 
-22.3905 7.6473 1.1857 
-22.2425 7.5967 1.176 
-22.2192 7.6616 1.1039 
-22.3182 7.6917 1.0989 
-22.0286 7.5134 1.1533 
-21.9338 7.5799 1.0656 
-21.6317 7.8684 -2.9616 
-21.775 7.7399 -3.0609 
-21.7918 7.8777 -2.9651 
-21.5387 7.6959 -3.1082 
-21.5683 7.754 -3.0497 
-21.4585 7.7491 -3.0556 
-21.3439 7.7238 -3.1014 
-21.4505 7.6934 -3.1229 
-21.3845 7.6647 -3.1888 
-21.2049 7.7292 -3.1237 
-21.2178 7.6972 -3.1948 
-20.2531 7.9135 -7.873 
-20.2558 7.7365 -7.9916 
-20.2786 7.8261 -8.0438 
-20.3966 7.8844 -8.3122 
-20.3678 7.9719 -8.1817 
-20.3236 7.8783 -8.153 
-24.9251 8.5057 1.5682 
-24.773 8.4116 1.6078 
-24.7333 8.5665 1.495 
-24.2994 8.4011 1.4846 
-24.4712 8.4142 1.5397 
-24.3073 8.3464 1.5381 
-24.2075 8.2273 1.593 
-23.9755 8.2947 1.4329 
-20.1336 7.1733 -0.1795 
-20.1881 7.0535 -0.0658 
-20.1081 7.0619 -0.1852 
-20.0178 7.1805 -0.3659 
-19.9987 7.0144 -0.3469 
-19.9327 7.0686 -0.5038 
-20.8208 7.6848 -3.4769 
-20.7606 7.6686 -3.6144 
-20.8355 7.6772 -3.6323 
-20.4479 7.5609 -3.5624 
-20.331 7.5293 -3.391 
-20.3839 7.4919 -3.6026 
-20.3279 7.4689 -3.5168 
-20.228 7.4877 -3.2491 
-20.078 7.3907 -3.069 
-20.1771 7.4033 -3.2851 
-20.0533 7.2821 -3.1673 
-20.279 7.4423 -3.4599 
-20.2276 7.3801 -3.4466 
-20.6309 7.6305 -3.6766 
-20.5723 7.6215 -3.593 
-20.6243 7.5926 -3.8235 
-20.8097 7.6492 -3.827 
-20.6827 7.6577 -3.5882 
-20.7373 7.6253 -3.8629 
-20.4995 7.6005 -3.5314 
-20.4929 7.5437 -3.7243 
-24.9214 8.6346 1.4884 
-24.5634 8.4294 1.5554 
-24.9704 8.7706 1.4 
-24.5652 8.5716 1.4379 
-22.1026 7.8107 -0.8004 
-21.9213 7.8489 -0.8031 
-22.0802 7.8328 -0.8708 
-21.8768 7.8888 -0.8773 
-22.0707 7.8855 -0.9574 
-22.8972 8.172 -1.5575 
-22.8808 8.2171 -1.5733 
-22.9532 8.2267 -1.6477 
-23.025 8.2574 -1.7347 
-22.9171 8.2855 -1.6954 
-22.9554 8.3103 -1.8262 
-23.1474 8.2593 -1.8551 
-22.9633 8.3199 -1.9201 
-22.7249 8.1716 -1.4388 
-22.6505 8.1131 -1.3668 
-22.5148 8.1722 -1.374 
-22.1816 7.8905 -1.0226 
-22.159 7.839 -0.9408 
-22.1074 7.9404 -1.0401 
-21.9121 7.9353 -0.9626 
-22.1931 7.9543 -1.0913 
-22.3736 7.9439 -1.1544 
-22.3661 8.1333 -1.298 
-22.469 7.9722 -1.211 
-22.5318 8.0825 -1.3082 
-20.3837 7.8394 -6.0423 
-20.478 7.8675 -5.8933 
-20.3664 7.6483 -5.9368 
-27.2531 9.8694 -0.697 
-27.526 9.6965 -0.8511 
-27.4564 9.7085 -0.6871 
-22.614 8.2364 -1.4694 
-22.0172 7.9971 -1.0667 
-22.2327 8.0734 -1.2062 
-25.5818 9.6192 -5.3714 
-25.4628 9.4996 -5.3558 
-25.508 9.5189 -5.4775 
-25.4262 9.4843 -5.148 
-25.5654 9.5574 -5.5999 
-25.6855 9.7027 -5.5265 
-25.6384 9.6068 -5.7778 
-25.7128 9.6975 -5.7245 
-27.4119 9.8504 -1.5565 
-27.4201 9.8521 -1.4192 
-27.3222 9.919 -1.473 
-27.3135 9.9009 -1.6316 
-27.3982 9.843 -1.647 
-27.3356 9.8364 -1.8109 
-27.2333 9.8889 -1.8424 
-27.1622 9.8981 -1.9264 
-27.3039 9.8206 -1.9169 
-27.1611 9.8612 -2.0134 
-21.7203 7.8522 -0.68 
-21.5314 7.8306 -0.4609 
-21.5352 7.8525 -0.5988 
-21.6951 7.8369 -0.553 
-21.5098 7.8732 -0.6731 
-21.6948 7.8869 -0.7941 
-21.8183 7.8625 -0.7836 
-21.7524 7.9211 -0.8855 
-20.6268 7.5093 0.0729 
-20.5513 7.4252 0.0934 
-20.452 7.4639 -0.0387 
-20.3688 7.3629 -0.0221 
-20.3189 7.4043 -0.1088 
-26.3504 10.1959 -7.5996 
-26.3809 10.0529 -7.4194 
-26.2676 10.1499 -7.5368 
-26.4092 10.2076 -7.626 
-26.5143 10.2191 -7.6832 
-26.5991 10.1613 -7.6156 
-26.6023 10.1938 -7.6794 
-26.5439 10.236 -7.754 
-26.6487 10.1901 -7.7133 
-26.6573 10.2041 -7.7758 
-26.5754 10.2449 -7.837 
-26.5415 10.0626 -7.4585 
-26.1622 10.0541 -7.4706 
-26.1514 10.1599 -7.5902 
-25.9771 10.0854 -7.5954 
-25.9429 9.981 -7.5287 
-25.8752 10.0545 -7.6322 
-25.7969 9.9417 -7.6001 
-25.678 9.9207 -7.6989 
-21.2215 8.4948 -8.2986 
-21.319 8.4725 -8.4712 
-21.3525 8.4917 -8.2649 
-20.6984 8.3356 -8.3692 
-20.575 8.2918 -8.2092 
-20.6068 8.2205 -8.4115 
-20.241 8.0907 -7.207 
-20.2038 8.004 -7.1674 
-20.233 8.0278 -7.5339 
-20.2742 8.1281 -7.5215 
-20.302 8.1328 -7.7075 
-20.2725 8.0234 -7.827 
-20.346 8.1665 -7.8413 
-26.9564 9.866 -2.2547 
-26.8675 9.9105 -2.2477 
-26.928 9.8028 -2.4334 
-26.812 9.8256 -2.4902 
-26.716 9.7881 -2.6246 
-26.7559 9.833 -2.5144 
-24.7184 8.9916 -0.4077 
-24.8654 9.0161 -0.2366 
-24.5608 8.8709 -0.486 
-24.5706 8.9659 -0.5974 
-24.4955 8.8692 -0.5917 
-24.4531 8.8997 -0.7312 
-21.229 8.0118 -2.7742 
-21.0989 7.9581 -2.8011 
-21.0662 7.8604 -2.9129 
-20.9583 7.8551 -2.8866 
-20.7251 7.8046 -2.9116 
-20.8464 7.9014 -2.7754 
-20.6743 7.8334 -2.8369 
-19.8224 7.5297 -2.2064 
-19.7722 7.4397 -2.0592 
-19.7904 7.4131 -2.2543 
-19.832 7.4866 -2.319 
-19.8826 7.5457 -2.3982 
-19.8996 7.4851 -2.5451 
-19.9387 7.5952 -2.4717 
-20.5633 7.7663 -2.9307 
-20.3914 7.7937 -2.7502 
-20.4257 7.7138 -2.9557 
-20.2887 7.7362 -2.7727 
-20.3373 7.6678 -2.9763 
-20.2705 7.6496 -2.9246 
-20.3296 8.1131 -6.498 
-20.2584 8.0419 -6.6772 
-20.2728 8.1043 -6.8024 
-20.2252 8.0229 -6.9552 
-20.2745 8.1373 -7.0192 
-27.255 9.9185 -0.9116 
-27.1744 9.9298 -0.7299 
-27.1202 9.9887 -1.6799 
-27.1435 10.0024 -1.5475 
-25.0697 9.1226 -0.0187 
-25.1303 9.1198 0.1306 
-24.989 8.9621 0.0109 
-25.0362 9.1333 -0.0904 
-24.8959 8.906 -0.0822 
-24.9153 9.1091 -0.2585 
-21.7763 8.1712 -2.6801 
-21.7644 8.251 -2.5674 
-21.617 8.2118 -2.6059 
-21.6321 8.1247 -2.7283 
-21.4206 8.1442 -2.6675 
-21.3958 8.0545 -2.7651 
-21.3105 8.1441 -2.6408 
-21.0884 8.0254 -2.7162 
-20.8069 7.9765 -2.6439 
-22.1335 8.6697 -6.3326 
-22.0206 8.672 -6.2516 
-21.9527 8.6972 -6.3499 
-21.913 8.6746 -6.2241 
-22.0844 8.688 -6.439 
-21.9252 8.7171 -6.5046 
-21.957 8.7149 -6.6004 
-22.0742 8.692 -6.5754 
-26.7658 9.7831 0.2483 
-26.9452 9.7062 0.2079 
-26.8336 9.6576 0.4164 
-27.0433 9.8312 -0.185 
-27.0609 9.7559 -0.0451 
-26.916 9.8711 -0.0937 
-25.1559 9.139 0.9341 
-25.0464 9.0367 1.0248 
-25.02 9.022 0.953 
-25.1022 9.0623 1.0687 
-25.1941 9.1566 0.6734 
-25.1683 9.1503 0.8098 
-25.1 9.0665 0.7467 
-25.0682 9.0562 0.8546 
-25.1691 9.1017 0.5856 
-21.6601 8.1884 -1.2482 
-21.8325 8.1801 -1.2344 
-21.6928 8.0856 -1.1047 
-21.5282 8.1059 -1.1341 
-21.7812 8.2543 -1.3288 
-26.4176 10.1813 -4.3813 
-26.2895 10.057 -4.3001 
-26.2778 10.1298 -4.4749 
-26.206 10.027 -4.3594 
-26.0972 10.015 -4.5203 
-26.2438 10.141 -4.5775 
-26.8731 10.3868 -5.5437 
-26.7642 10.3881 -5.4163 
-26.7659 10.3674 -5.6951 
-26.6733 10.3692 -5.4687 
-26.6673 10.3491 -5.7498 
-26.5778 10.354 -5.1923 
-26.639 10.367 -5.2971 
-26.6612 10.3757 -5.1237 
-26.5245 10.3342 -5.3081 
-26.481 10.327 -5.1299 
-26.3402 10.2609 -5.3406 
-26.2575 10.2181 -5.1598 
-26.1973 10.1768 -5.2299 
-26.2379 10.1989 -5.4047 
-26.5778 10.3427 -5.522 
-26.4402 10.2897 -5.6055 
-26.6071 10.336 -5.7507 
-26.5187 10.3146 -5.6867 
-26.3432 10.2508 -5.5232 
-26.6665 10.3399 -4.6367 
-26.5894 10.3101 -4.5872 
-26.4967 10.2956 -4.6677 
-26.5848 10.3422 -4.7827 
-26.686 10.3731 -4.8774 
-26.6046 10.3608 -4.9294 
-26.4443 10.2972 -4.809 
-26.4052 10.2938 -5.0053 
-19.9131 7.8088 -1.9268 
-20.0049 7.9236 -1.927 
-19.9556 7.8845 -1.8224 
-19.8789 7.7711 -1.7636 
-19.9467 7.8754 -1.7156 
-19.8925 7.7926 -1.6187 
-25.769 9.8263 -2.0893 
-25.6417 9.7849 -1.8852 
-25.6344 9.7445 -1.9684 
-25.6985 9.7219 -2.205 
-21.8347 8.4483 -1.9363 
-21.5814 8.4212 -1.9426 
-21.8065 8.4409 -2.0308 
-21.7258 8.4206 -2.1281 
-21.4714 8.3953 -2.0914 
-20.1847 7.8912 -0.9576 
-20.1244 7.8876 -1.054 
-20.1226 7.9787 -1.2923 
-20.0554 7.8687 -1.1425 
-20.0037 7.8833 -1.3036 
-20.0482 7.9557 -1.4163 
-19.9665 7.8624 -1.3881 
-19.9611 7.8876 -1.5536 
-20.0505 7.978 -1.5632 
-26.5899 10.2176 -1.2577 
-26.6562 10.1921 -1.3894 
-26.5076 10.2172 -1.4028 
-26.5957 10.1832 -1.5229 
-26.5009 10.1761 -1.6463 
-26.415 10.1991 -1.5561 
-26.2931 10.1727 -1.6786 
-26.3597 10.1328 -1.8644 
-26.2567 10.1372 -1.8153 
-26.1807 10.1584 -1.6774 
-26.1708 10.1053 -1.8877 
-26.3184 10.1103 -0.1625 
-26.492 10.0603 -0.1343 
-26.2577 10.0891 -0.0691 
-26.3576 10.1404 -0.2866 
-26.1676 10.0518 0.0577 
-26.2729 9.9895 0.1606 
-26.1736 9.9488 0.2876 
-26.1006 10.0166 0.1577 
-26.4558 10.1954 -0.5929 
-26.6938 10.1353 -0.5751 
-26.4186 10.1605 -0.4102 
-30.805 4.0817 -3.3133 
-30.8533 3.9819 -3.7238 
-30.7933 3.9987 -3.0958 
-30.7713 4.1859 -3.1708 
-30.8488 4.393 -5.4641 
-30.862 4.3433 -5.2984 
-30.8687 4.4418 -5.3264 
-30.7736 4.7641 -5.8297 
-30.7392 4.7003 -5.9571 
-30.7863 4.6282 -5.7798 
-30.7345 4.585 -3.0773 
-30.747 4.6385 -3.262 
-30.7612 4.4965 -3.3563 
-30.7713 4.636 -3.5152 
-30.8198 4.7166 -3.8973 
-30.8432 4.7004 -4.175 
-30.8293 4.5366 -4.0027 
-30.7113 4.6491 -2.9408 
-30.7218 4.7119 -3.1203 
-30.7383 4.7767 -3.2816 
-30.8058 4.7946 -3.848 
-30.8294 4.7907 -4.0304 
-30.6407 5.1187 -6.1021 
-30.7361 5.042 -5.8456 
-30.7182 5.093 -5.876 
-30.6733 5.0361 -6.0481 
-30.6391 4.9494 -6.1744 
-30.4983 5.1779 -6.3999 
-30.5526 4.9948 -6.3539 
-30.4806 5.0436 -6.4673 
-30.392 5.1484 -6.5739 
-30.44 5.0065 -6.5394 
-30.2735 5.0521 -6.8082 
-30.3414 4.9242 -6.7376 
-30.3292 5.0499 -6.7134 
-30.0476 4.9458 -7.1535 
-30.1841 5.0011 -6.9628 
-30.0737 5.0412 -7.0922 
-29.0652 4.8226 -8.2909 
-29.13 4.7923 -8.221 
-28.874 4.8114 -8.5108 
-28.9142 4.7386 -8.4641 
-29.0219 4.7133 -8.3393 
-28.8269 4.7189 -8.5594 
-28.7781 4.7772 -8.6092 
-28.7719 4.7241 -8.6148 
-28.6839 4.7769 -8.7009 
-28.6353 4.7364 -8.745 
-30.6856 5.1049 -3.263 
-30.7352 5.1087 -3.5373 
-30.7545 4.9931 -3.5552 
-30.6389 5.0531 -2.8713 
-30.6317 4.8552 -2.6017 
-30.6186 5.099 -2.8019 
-30.6693 4.9529 -3.018 
-30.6583 5.0563 -3.0227 
-30.7436 4.8365 -3.3742 
-30.8404 5.0221 -4.2937 
-30.797 5.1043 -3.9929 
-30.8388 5.1096 -4.3673 
-30.8539 5.1296 -4.658 
-28.732 5.0499 -8.6483 
-28.7171 4.9192 -8.6659 
-28.8951 4.9469 -8.4816 
-28.6319 4.999 -8.7487 
-28.479 5.0213 -8.8984 
-28.5456 4.8675 -8.8391 
-30.3478 4.896 -1.0282 
-30.3623 4.7135 -1.0352 
-30.2856 4.8788 -0.8736 
-30.4924 5.1404 -1.876 
-30.5782 4.8733 -2.188 
-30.5469 4.9223 -1.9842 
-30.7616 5.4181 -5.5635 
-30.8017 5.4704 -5.3278 
-30.7454 5.5915 -5.5124 
-30.6 5.5613 -5.9842 
-30.6373 5.426 -5.9551 
-27.8243 4.962 -9.3385 
-28.8115 4.3959 0.6434 
-28.8151 4.4733 0.631 
-29.3252 4.6722 0.2445 
-29.4056 4.7488 0.1729 
-28.6156 4.3882 0.7746 
-28.5397 4.444 0.8164 
-29.3316 4.5134 0.2355 
-29.2014 4.5887 0.3378 
-28.8251 5.2814 -8.5437 
-29.0371 5.4483 -8.296 
-28.8443 5.5774 -8.4819 
-28.4373 5.1871 -8.9423 
-28.5254 5.2348 -8.8687 
-28.4007 5.3638 -8.9767 
-28.2284 5.3018 -9.1061 
-28.2622 5.2154 -9.0781 
-28.1563 5.116 -9.1511 
-28.0435 5.2704 -9.2216 
-28.0799 5.1771 -9.199 
-27.9166 5.0669 -9.2801 
-30.5992 5.7694 -3.7368 
-30.6366 5.6934 -3.7864 
-30.6709 5.5636 -3.7776 
-30.6861 5.6649 -3.973 
-30.6886 5.7294 -4.103 
-30.711 5.6665 -4.116 
-28.6771 4.4933 0.7229 
-28.4858 4.5006 0.8433 
-29.3827 4.9742 0.1952 
-29.32 4.836 0.2522 
-28.7696 4.6382 0.6469 
-29.0435 4.7788 0.4566 
-29.0156 4.714 0.4748 
-29.1178 4.6383 0.3998 
-30.4261 5.6824 -2.7237 
-30.5016 5.428 -2.6237 
-30.4005 5.607 -2.3929 
-30.664 5.7609 -4.0205 
-30.622 5.8022 -3.868 
-29.0871 5.1526 0.4213 
-28.9906 5.0311 0.4959 
-28.5787 5.8206 -8.7666 
-28.4852 5.9806 -8.8378 
-28.4159 5.7709 -8.9315 
-27.3924 4.4851 1.3068 
-27.2518 4.4305 1.3222 
-27.2266 4.5631 1.3525 
-26.9977 4.3821 1.3652 
-27.0095 4.3305 1.357 
-26.8223 4.3288 1.4096 
-26.8761 4.2821 1.3925 
-26.6913 4.2838 1.4543 
-27.4931 4.6857 1.2943 
-27.3647 4.6131 1.3295 
-27.3285 4.6706 1.3429 
-27.1487 4.5508 1.3622 
-26.9451 4.4897 1.3926 
-27.0583 4.6348 1.3922 
-26.8194 4.4075 1.4177 
-26.715 4.3629 1.4466 
-26.712 4.4976 1.4587 
-26.5993 4.3746 1.4801 
-29.8334 5.6445 -0.3551 
-29.7053 5.477 -0.1714 
-29.5806 5.7653 -0.1122 
-29.6361 5.3905 -0.0779 
-28.6181 5.1524 0.7542 
-28.499 5.107 0.8279 
-28.4617 5.1931 0.8495 
-27.5888 4.7913 1.2708 
-27.4313 4.7475 1.3208 
-28.1639 4.9325 1.0293 
-27.9826 4.8945 1.119 
-28.024 5.0314 1.1019 
-21.2191 2.9172 -0.9095 
-30.1457 5.909 -1.2628 
-30.0662 5.9603 -1.0315 
-29.9939 6.1527 -1.0999 
-30.1139 6.0097 -1.3422 
-30.046 6.1108 -1.2337 
-30.1534 6.0406 -2.0867 
-30.0873 6.169 -2.3471 
-30.1097 6.1679 -2.4701 
-20.5402 3.4297 -6.8692 
-20.5876 3.4005 -6.9851 
-20.6345 3.3912 -7.1028 
-20.6365 3.4627 -7.1302 
-20.7275 3.5457 -7.3349 
-27.6061 6.058 -9.464 
-27.7239 6.0898 -9.4053 
-27.6415 6.1515 -9.4449 
-27.3952 5.9577 -9.5572 
-27.4524 6.0209 -9.5313 
-27.2387 6.0038 -9.6322 
-26.2459 4.6003 1.5683 
-28.9505 6.3833 -8.1479 
-29.0034 6.4615 -8.0498 
-28.87 6.554 -8.1894 
-28.8315 6.3708 -8.3175 
-28.5203 6.5075 -8.6967 
-28.6108 6.3274 -8.6213 
-21.589 4.0544 -8.5663 
-21.7438 3.999 -8.695 
-21.6379 4.2125 -8.6573 
-21.7852 4.1757 -8.7651 
-30.346 6.5799 -4.0659 
-30.3412 6.5554 -3.9915 
-30.2732 6.6353 -3.8431 
-21.1078 3.8732 -7.9943 
-20.9038 3.9618 -7.7597 
-20.9811 3.6442 -7.7515 
-22.4236 4.5204 -9.2538 
-22.4727 4.4283 -9.2599 
-22.5266 4.4577 -9.2894 
-22.3477 4.4706 -9.2098 
-22.3186 4.3188 -9.1663 
-22.4336 4.3315 -9.2227 
-22.2008 4.4349 -9.1189 
-22.2452 4.2334 -9.1021 
-22.0782 4.4499 -9.0452 
-22.0777 4.2685 -9.002 
-21.2619 3.2554 -0.5729 
-21.2362 3.207 -0.6474 
-21.208 3.1287 -0.7438 
-21.1592 3.3041 -0.6903 
-20.2261 3.3315 -4.6954 
-20.2159 3.4474 -4.731 
-20.2125 3.4629 -4.9094 
-20.2275 3.3498 -4.9029 
-20.2133 3.4584 -5.0738 
-27.5032 6.5365 -9.479 
-27.3963 6.5129 -9.5388 
-27.5526 6.4168 -9.4685 
-27.4449 6.3817 -9.532 
-27.3709 6.3364 -9.5738 
-27.2721 6.4101 -9.6104 
-27.3138 6.3241 -9.6013 
-27.2315 6.3866 -9.6294 
-27.2233 6.4032 -9.6304 
-27.2504 6.3261 -9.6299 
-27.1871 6.3807 -9.6471 
-27.267 6.2455 -9.6269 
-27.1408 6.3694 -9.6652 
-27.1155 6.3393 -9.6799 
-27.0821 6.3751 -9.6877 
-27.0318 6.3584 -9.7102 
-27.0456 6.2806 -9.7199 
-29.7332 6.897 -6.4885 
-29.7926 6.9186 -6.3696 
-29.6944 7.0091 -6.4335 
-29.6187 7.0548 -6.5278 
-20.7065 4.0574 -7.5011 
-20.7707 4.151 -7.6269 
-20.7016 4.2897 -7.5795 
-30.1502 7.0769 -4.6799 
-30.0586 7.2245 -4.9545 
-30.1661 7.0447 -4.8378 
-30.126 7.1017 -5.0488 
-30.0686 7.1859 -5.1432 
-30.068 7.1382 -5.3023 
-30.1925 6.9826 -5.1733 
-26.9174 6.4915 -9.7417 
-20.1804 3.7143 -4.1375 
-20.1607 3.7651 -4.4601 
-29.4455 7.1868 -6.7264 
-29.2913 7.4518 -6.7307 
-29.2773 7.2948 -6.964 
-29.1126 7.3704 -7.2099 
-29.2502 7.2483 -7.0753 
-29.0602 7.2502 -7.4399 
-29.4986 7.1373 -2.8173 
-29.5666 6.9964 -2.7436 
-29.459 7.1358 -2.7378 
-29.6824 7.2005 -3.1341 
-29.7456 7.0744 -3.0971 
-29.5985 7.1155 -2.939 
-29.7304 7.2228 -3.2315 
-29.8353 7.1266 -3.2954 
-29.8505 7.2206 -3.4225 
-20.0876 4.0852 -4.6016 
-20.0816 4.0899 -4.7756 
-20.0707 4.1722 -4.547 
-28.4633 6.5332 0.7796 
-28.4889 6.3069 0.7935 
-28.3041 6.5521 0.9006 
-28.5808 6.3753 0.7095 
-29.012 6.7392 0.0987 
-28.9889 6.6173 0.1921 
-29.4204 6.6291 -0.3669 
-29.1961 6.891 -0.2231 
-29.4073 6.8468 -0.5308 
-27.4782 7.0901 -9.3945 
-27.3785 7.1484 -9.4428 
-27.4542 7.0827 -9.4092 
-27.3294 7.0718 -9.4795 
-27.36 7.0514 -9.4655 
-27.0904 7.059 -9.6484 
-26.9008 6.7743 -9.7446 
-20.0288 4.336 -4.8965 
-20.0554 4.2219 -4.7289 
-20.0411 4.3599 -5.4702 
-20.0671 4.3482 -5.6664 
-20.0384 4.4369 -5.6085 
-22.5086 5.5684 -9.5451 
-22.5951 5.484 -9.5806 
-22.5606 5.5932 -9.5868 
-28.6598 6.8158 0.5143 
-28.3026 6.8066 0.8626 
-26.439 5.9472 1.6492 
-26.3531 5.8157 1.6567 
-26.1906 5.8179 1.6975 
-22.6344 5.7902 -9.6887 
-22.6568 5.7114 -9.6872 
-22.7054 5.8113 -9.7411 
-22.606 5.6988 -9.6472 
-22.7215 5.7325 -9.7373 
-22.7549 5.8206 -9.7741 
-22.5723 5.6813 -9.6198 
-22.5311 5.6803 -9.593 
-22.5475 5.7618 -9.6258 
-22.518 5.7566 -9.605 
-29.3098 7.7469 -6.3295 
-29.4199 7.6438 -6.2072 
-29.3559 7.8546 -6.0711 
-26.5907 5.9808 1.633 
-26.6565 6.064 1.639 
-26.3925 6.0369 1.6644 
-26.1006 5.8308 1.7217 
-26.1676 5.9679 1.7017 
-20.0319 4.4596 -3.8177 
-20.0583 4.3534 -4.0237 
-20.0234 4.4722 -4.1022 
-20.004 4.5252 -4.3793 
-20.0101 4.4891 -4.3596 
-20.0228 4.3935 -4.5417 
-19.9948 4.5427 -4.6106 
-21.479 5.4447 -8.8649 
-21.2732 5.4536 -8.6858 
-21.372 5.3144 -8.7353 
-29.1101 7.1612 -0.2813 
-29.0191 7.386 -0.337 
-29.1724 7.1381 -0.3705 
-29.1224 7.2689 -0.4145 
-29.1392 7.4144 -0.6493 
-29.2553 7.2787 -0.7651 
-29.1988 7.2572 -0.6045 
-26.4846 6.217 1.6747 
-26.3299 6.2927 1.6941 
-26.4558 6.358 1.6831 
-26.1118 6.3078 1.7332 
-26.192 6.2901 1.7159 
-26.1438 6.1873 1.7162 
-20.2909 5.2288 -7.2777 
-20.3807 4.8937 -7.3118 
-20.4338 5.2064 -7.5568 
-20.4625 5.251 -7.6221 
-20.5714 5.15 -7.7294 
-22.3655 6.0824 -9.6014 
-22.4179 6.0617 -9.6234 
-22.402 6.1704 -9.6422 
-26.9695 7.5982 -9.5697 
-27.1345 7.6311 -9.4839 
-26.9271 7.5162 -9.615 
-26.8372 7.5967 -9.6387 
-26.7722 7.5741 -9.6825 
-29.0894 7.6549 -2.6214 
-29.0357 7.7439 -2.6238 
-29.0297 7.7403 -2.7295 
-29.4204 7.8505 -3.3845 
-29.3857 7.7734 -3.2592 
-29.2934 8.0247 -3.3716 
-27.1944 7.8369 -9.4032 
-27.1214 7.8316 -9.4468 
-19.9661 5.0156 -5.9883 
-19.9804 4.9965 -6.0621 
-19.9599 5.2103 -6.0808 
-28.8086 8.1128 -6.7796 
-28.7944 8.2241 -6.6618 
-27.4126 7.8589 -9.2582 
-27.3885 7.981 -9.2462 
-28.0438 7.0942 1.0186 
-27.8656 7.168 1.1281 
-27.9489 7.3533 1.0358 
-19.9337 5.1213 -5.3679 
-19.9425 5.0897 -5.5854 
-19.9419 5.2764 -5.6008 
-20.7585 5.8003 -8.2366 
-20.0541 5.4008 -6.7007 
-20.1417 5.3462 -6.9499 
-20.0909 5.4886 -6.8857 
-22.1135 5.3434 1.068 
-22.0785 5.251 1.0536 
-22.0124 5.3467 0.9884 
-21.9706 5.2228 0.9309 
-21.9933 5.1868 0.9532 
-21.9211 5.2866 0.908 
-21.7968 5.1363 0.7744 
-21.7412 5.3719 0.8082 
-21.6201 5.187 0.6553 
-20.223 5.4451 -7.2347 
-20.199 5.6635 -7.2852 
-20.1908 5.4034 -7.1224 
-22.2609 6.4309 -9.6333 
-22.339 6.4063 -9.6664 
-22.3198 6.5142 -9.6812 
-26.1501 6.7513 1.77 
-26.1492 6.5199 1.75 
-26.1104 6.7011 1.7877 
-27.1471 8.0785 -9.3658 
-27.0838 8.1684 -9.3737 
-27.0701 8.0864 -9.4016 
-27.7229 7.2156 1.2068 
-27.5136 7.4944 1.2727 
-27.7007 7.3831 1.1928 
-19.959 5.4591 -6.0478 
-19.9564 5.4317 -5.7479 
-19.9558 5.3993 -5.9153 
-19.9756 5.5658 -6.3253 
-19.9705 5.5726 -6.1623 
-19.9638 5.3973 -6.2101 
-20.4819 5.7579 -7.8448 
-20.472 6.0199 -7.935 
-20.7866 5.9764 -8.3424 
-20.9265 6.0825 -8.5277 
-20.8452 6.1747 -8.4721 
-20.6617 5.894 -8.152 
-20.0401 5.6256 -6.7866 
-20.0784 5.8473 -7.0694 
-20.103 5.6745 -7.0366 
-20.1112 5.8289 -7.1555 
-27.4615 7.1104 1.3637 
-27.3446 7.2497 1.3951 
-27.528 7.2424 1.3067 
-27.9306 8.5516 -8.3837 
-28.0502 8.4534 -8.285 
-28.0151 8.5954 -8.2075 
-28.729 8.3188 -3.0422 
-28.805 8.205 -3.0248 
-28.7016 8.2823 -2.9823 
-29.1916 8.5246 -3.8198 
-29.1397 8.4583 -3.6225 
-29.0802 8.5948 -3.7059 
-27.2755 8.5337 -9.1169 
-27.2828 8.3802 -9.1778 
-27.3808 8.4355 -9.0838 
-27.088 8.5489 -9.2366 
-27.1901 8.3707 -9.2425 
-27.1668 8.3305 -9.2706 
-27.0241 8.4973 -9.2957 
-27.1378 8.2932 -9.3011 
-26.9274 8.451 -9.3651 
-26.7262 8.171 -9.5234 
-28.1299 8.6142 -7.1223 
-28.1178 8.5835 -7.2174 
-28.2149 8.4949 -7.1567 
-28.1094 8.6384 -7.8426 
-28.0075 8.7689 -7.992 
-28.1535 8.5412 -7.9304 
-28.0337 8.6628 -8.0863 
-28.3644 7.9773 0.2736 
-28.4251 8.147 0.004 
-28.479 8.0113 0.0494 
-20.017 6.0118 -5.8078 
-20.0008 5.8647 -5.6008 
-20.015 6.0472 -5.8886 
-28.2273 8.8433 -6.7244 
-28.4271 8.7326 -6.5875 
-20.0357 5.8984 -5.3573 
-20.0213 5.9673 -5.5339 
-20.046 6.082 -5.4957 
-20.0414 6.1515 -5.6762 
-20.0161 6.1265 -6.0335 
-19.9971 6.0989 -6.262 
-19.9855 6.0246 -6.4015 
-25.4328 8.2563 -9.7604 
-25.4695 8.2168 -9.7604 
-25.363 8.2217 -9.7884 
-25.3327 8.2498 -9.7866 
-25.3461 8.201 -9.8016 
-25.2826 8.1935 -9.8248 
-28.8751 8.8792 -3.8064 
-28.9877 8.7451 -3.7684 
-28.8921 8.772 -3.6737 
-29.0579 8.9106 -4.5664 
-28.9607 9.0364 -4.6837 
-29.0749 8.8891 -4.6654 
-19.8333 5.654 -2.3086 
-19.8175 5.6601 -2.57 
-19.8024 5.7974 -2.2668 
-19.7872 5.8239 -2.559 
-19.809 5.6861 -2.7796 
-19.7981 5.7943 -2.7687 
-19.8073 5.727 -2.9857 
-21.4457 6.1341 0.9231 
-21.5724 6.1545 1.0072 
-21.5681 5.9815 0.9431 
-21.9271 7.2884 -9.4735 
-26.2229 8.6349 -9.5841 
-28.2355 8.7565 -2.5842 
-28.3344 8.6473 -2.5959 
-28.2504 8.7742 -2.5262 
-28.2086 8.7581 -2.6535 
-28.2187 8.8347 -3.0584 
-28.3561 8.7484 -3.0832 
-28.2875 8.7359 -2.9922 
-28.2153 8.8865 -3.114 
-26.5621 8.954 -9.3421 
-26.5931 8.8991 -9.3551 
-26.6479 8.976 -9.2927 
-26.4908 8.9308 -9.3833 
-26.3741 8.8555 -9.4685 
-26.4638 8.8466 -9.435 
-26.4626 8.8704 -9.4248 
-23.8203 7.8843 -8.7729 
-23.7177 7.7955 -8.7066 
-23.6451 7.8667 -8.7669 
-23.5492 7.8351 -8.7042 
-23.6327 7.8028 -8.6998 
-23.5803 7.7813 -8.6218 
-24.1258 7.9762 -8.7701 
-24.0142 7.8904 -8.7226 
-23.9867 7.9634 -8.8089 
-24.0039 8.1153 -8.9546 
-23.7443 7.927 -8.8195 
-23.5386 7.7845 -8.4683 
-23.5008 7.8127 -8.5404 
-23.5815 7.7607 -8.5583 
-23.4871 7.8383 -8.6336 
-19.7968 6.0209 -1.7705 
-19.8452 5.8519 -1.667 
-19.8183 5.8285 -1.9784 
-19.7936 5.9742 -1.8989 
-27.7388 9.2654 -6.8879 
-27.894 9.0568 -6.9119 
-27.9425 9.1652 -6.7425 
-27.7029 9.1497 -7.0857 
-27.6334 9.181 -7.1902 
-27.7522 9.046 -7.1539 
-27.7238 9.0498 -7.2603 
-27.5758 9.219 -7.4049 
-27.6767 9.1145 -7.4446 
-27.6231 9.1612 -7.348 
-23.5941 7.9514 -8.8368 
-23.5181 7.9218 -8.7968 
-23.4013 7.9088 -8.6843 
-19.7573 6.1308 -1.8771 
-19.7797 5.9308 -2.1085 
-19.7542 6.0798 -2.0714 
-24.3641 7.699 -3.3096 
-24.4636 7.7231 -3.2658 
-24.4167 7.7179 -3.2399 
-24.5433 7.7357 -3.3487 
-24.421 7.7116 -3.4799 
-24.5557 7.7478 -3.4277 
-24.34 7.6923 -3.395 
-27.8798 9.3314 -6.6233 
-27.6069 9.1866 -7.2841 
-27.7242 9.1454 -7.6609 
-27.6103 9.2248 -7.5312 
-27.5817 9.3332 -7.6845 
-27.6756 9.2425 -7.7739 
-27.7871 9.1074 -7.7955 
-27.6936 9.2329 -7.8959 
-23.8581 8.2117 -9.9786 
-24.0212 8.2379 -9.9675 
-23.9177 8.2404 -9.9667 
-28.0849 8.8687 -2.7745 
-27.9841 8.9729 -2.7017 
-27.9463 9.0027 -2.7914 
-28.0059 8.9495 -2.8611 
-23.0587 7.3828 -4.3999 
-22.9367 7.3965 -4.3336 
-22.8563 7.432 -4.427 
-23.0374 7.3944 -4.4834 
-22.7777 7.395 -4.278 
-23.0053 7.3683 -4.2822 
-22.9585 7.3324 -4.1721 
-22.8728 7.4427 -4.5497 
-22.96 7.4129 -4.6218 
-22.8614 7.4355 -4.7698 
-22.9749 7.3875 -4.7453 
-22.9799 7.3784 -4.8117 
-22.7417 7.4854 -4.8585 
-23.0099 7.3753 -4.8901 
-22.9499 7.4718 -5.002 
-23.1679 7.4228 -5.0148 
-23.0579 7.4061 -4.9787 
-23.1004 7.4955 -5.0499 
-22.8623 7.4619 -4.9479 
-22.9734 7.4084 -4.9355 
-24.5016 8.2151 -7.6101 
-24.4645 8.2892 -7.7662 
-24.5285 8.3136 -7.6316 
-24.4287 8.1894 -7.762 
-24.416 8.2375 -7.8894 
-24.379 8.1716 -7.9615 
-24.4086 8.2536 -8.0402 
-24.4451 8.3595 -8.2431 
-24.3897 8.2077 -8.1786 
-24.4216 8.2388 -8.3421 
-22.7584 7.4232 -4.3485 
-22.6947 7.4795 -4.4936 
-22.7068 7.4939 -4.7468 
-22.6942 7.4928 -4.5779 
-22.8326 7.5218 -5.012 
-22.7625 7.4949 -4.9331 
-22.9805 7.5669 -5.0716 
-23.1264 7.576 -5.0896 
-22.8476 7.5807 -5.0614 
-25.391 8.8015 -9.6493 
-25.2307 8.7988 -9.6629 
-25.0666 8.8556 -9.6123 
-24.5027 8.4061 -8.6173 
-24.4791 8.3469 -8.6854 
-24.5103 8.4442 -8.7785 
-24.5265 8.5253 -8.8876 
-24.4767 8.4324 -8.882 
-24.4348 8.4566 -9.0088 
-24.42 8.3726 -8.922 
-24.3587 8.3413 -8.9795 
-24.362 8.411 -9.0572 
-24.3081 8.4011 -9.0989 
-24.3443 8.472 -9.15 
-24.2564 8.3546 -9.0887 
-24.1922 8.4107 -9.1882 
-24.199 8.2975 -9.0672 
-24.1093 8.2764 -9.0866 
-24.1061 8.3758 -9.1817 
-20.4941 6.1196 0.0492 
-20.3831 6.2165 -0.0172 
-20.4482 6.3444 0.1282 
-20.0689 6.2079 -0.5212 
-19.9704 6.1465 -0.7469 
-19.985 6.2575 -0.6677 
-22.6583 7.5257 -4.935 
-22.6837 7.5572 -5.0056 
-23.0424 7.649 -5.1127 
-23.9766 7.9371 -5.3102 
-24.0271 7.9822 -5.3538 
-23.9656 7.9614 -5.4121 
-23.9161 7.93 -5.3633 
-23.8245 7.9542 -5.4275 
-23.8597 7.8975 -5.3271 
-24.0344 7.9967 -5.4714 
-23.9492 7.9949 -5.5469 
-23.89 7.9721 -5.4656 
-23.8848 8.0037 -5.5569 
-23.8101 7.8951 -5.3289 
-23.6431 7.8273 -5.2497 
-23.6862 7.889 -5.3129 
-23.7433 7.9518 -5.4096 
-23.5768 7.882 -5.292 
-24.0131 8.0083 -5.6323 
-23.9513 8.0162 -5.6932 
-23.8863 8.0239 -5.6371 
-24.0873 8.0199 -5.7644 
-23.1898 8.0637 -8.7879 
-23.2531 8.0149 -8.7241 
-23.8784 8.2644 -9.0911 
-23.7294 8.2012 -9.0278 
-23.7146 8.309 -9.1255 
-23.8088 8.3523 -9.1803 
-24.0061 8.3507 -9.1757 
-23.8557 8.392 -9.236 
-23.5117 8.2067 -9.0332 
-28.3874 9.6104 -4.6662 
-28.548 9.4392 -4.4738 
-28.4808 9.4849 -4.4354 
-28.5479 9.4771 -4.7318 
-23.5253 7.7697 -3.5664 
-23.6765 7.7094 -3.6697 
-23.6768 7.7965 -3.5519 
-23.2059 7.6311 -3.634 
-23.4148 7.6409 -3.6731 
-24.1599 8.0927 -4.1576 
-24.0596 7.8943 -3.9693 
-24.0531 7.9873 -4.1644 
-27.5099 9.456 -7.9006 
-27.4881 9.47 -7.7757 
-27.4422 9.5329 -7.8414 
-27.4472 9.5221 -7.9957 
-27.2716 9.4876 -8.4739 
-27.389 9.47 -8.3027 
-27.2836 9.5397 -8.3758 
-25.8214 9.0731 -9.4257 
-25.9036 9.0952 -9.3927 
-25.831 9.1045 -9.3824 
-25.6962 9.0867 -9.4341 
-25.7279 9.0297 -9.4788 
-25.6367 9.0505 -9.4703 
-25.4981 8.9602 -9.5545 
-25.535 9.0654 -9.4733 
-25.441 8.9941 -9.5348 
-25.459 8.9564 -9.5605 
-25.016 8.9255 -9.5184 
-25.0174 8.8959 -9.5535 
-25.0795 8.9349 -9.54 
-25.0851 8.886 -9.5907 
-24.9548 8.9226 -9.4865 
-24.8991 8.8686 -9.5199 
-24.9072 8.855 -9.5404 
-24.8403 8.8581 -9.4891 
-24.5617 8.5693 -8.6124 
-24.5832 8.622 -8.7452 
-24.5744 8.6548 -8.9925 
-24.5608 8.5874 -8.8733 
-22.2462 6.7595 1.4179 
-25.2594 8.347 -3.4429 
-25.1717 8.3186 -3.3849 
-25.1406 8.2609 -3.4672 
-25.3 8.3676 -3.5229 
-25.1422 8.261 -3.5425 
-25.3249 8.4004 -3.5843 
-25.2801 8.3821 -3.6275 
-25.1341 8.274 -3.602 
-25.1318 8.3093 -3.6656 
-25.2402 8.3905 -3.6814 
-25.1538 8.3791 -3.7342 
-25.0454 8.2191 -3.3913 
-25.0814 8.2945 -3.3365 
-24.9827 8.2514 -3.3077 
-24.9387 8.2094 -3.3101 
-27.5837 9.4907 -6.8234 
-27.362 9.5507 -7.0482 
-27.5199 9.4135 -7.0096 
-27.4496 9.4276 -7.1137 
-27.3392 9.516 -7.1474 
-27.4222 9.4087 -7.238 
-27.3431 9.4809 -7.244 
-27.3545 9.4564 -7.3179 
-27.314 9.5015 -7.415 
-27.4004 9.4204 -7.4284 
-27.3762 9.478 -7.5135 
-27.4625 9.4791 -7.6937 
-27.3653 9.5483 -7.623 
-27.3574 9.5974 -7.7221 
-27.3715 9.6062 -7.9568 
-27.3538 9.5854 -8.1041 
-27.4666 9.4752 -8.1051 
-27.402 9.5086 -8.1891 
-24.7382 8.8381 -9.3988 
-24.6721 8.7819 -9.4262 
-24.7656 8.8331 -9.4489 
-24.6334 8.7677 -9.366 
-24.6902 8.8312 -9.2872 
-24.5915 8.7304 -9.1903 
-24.6002 8.749 -9.315 
-24.5485 8.7016 -9.2753 
-25.4068 8.9998 -9.5331 
-25.338 9.0165 -9.5238 
-25.2564 8.9243 -9.5915 
-25.197 8.9727 -9.5429 
-19.8675 6.3193 -0.9604 
-19.7567 6.3466 -1.6254 
-19.7347 6.2593 -1.844 
-19.7109 6.4524 -1.8726 
-19.7044 6.4454 -1.962 
-24.5938 8.119 -2.3197 
-24.5385 8.1147 -2.2105 
-24.5469 8.0372 -2.3351 
-24.3934 8.0183 -2.1263 
-24.4089 7.925 -2.2536 
-24.4673 7.9965 -2.2385 
-24.2089 7.874 -2.1675 
-24.2964 7.9128 -2.152 
-24.1272 7.89 -2.0918 
-24.1706 7.8603 -2.2063 
-27.2735 9.6042 -8.269 
-27.0011 9.5714 -8.7281 
-27.0827 9.6089 -8.6087 
-26.8161 9.4549 -8.9411 
-26.987 9.4928 -8.7988 
-26.8416 9.6035 -8.8344 
-23.2335 8.3667 -9.1958 
-23.3863 8.4436 -9.339 
-28.223 9.6394 -5.7149 
-28.2656 9.653 -5.576 
-28.1665 9.7724 -5.5292 
-28.148 9.7462 -5.6545 
