ply
format ascii 1.0
comment VCGLIB generated
element vertex 1382
property float x
property float y
property float z
property float nx
property float ny
property float nz
property uchar red
property uchar green
property uchar blue
property uchar alpha
element face 0
property list uchar int vertex_indices
end_header
199 88 2.39119 0 0 0 255 0 0 255 
201 88 2.39259 0 0 0 255 0 0 255 
203 88 2.32166 0 0 0 255 0 0 255 
208 88 2.42337 0 0 0 255 0 0 255 
210 88 2.414 0 0 0 255 0 0 255 
212 88 2.49734 0 0 0 255 0 0 255 
215 88 2.48474 0 0 0 255 0 0 255 
217 88 2.50901 0 0 0 255 0 0 255 
219 88 2.56538 0 0 0 255 0 0 255 
221 88 2.63283 0 0 0 255 0 0 255 
111 89 2.88294 0 0 0 255 0 0 255 
113 89 2.8875 0 0 0 255 0 0 255 
118 89 3.09041 0 0 0 255 0 0 255 
120 89 3.1117 0 0 0 255 0 0 255 
122 89 3.01314 0 0 0 255 0 0 255 
124 89 3.02988 0 0 0 255 0 0 255 
129 89 3.19646 0 0 0 255 0 0 255 
131 89 3.1972 0 0 0 255 0 0 255 
133 89 3.25135 0 0 0 255 0 0 255 
134 89 3.32681 0 0 0 255 0 0 255 
136 89 3.31175 0 0 0 255 0 0 255 
138 89 3.3059 0 0 0 255 0 0 255 
140 89 3.38092 0 0 0 255 0 0 255 
142 89 3.35655 0 0 0 255 0 0 255 
145 89 3.68094 0 0 0 255 0 0 255 
147 89 3.9557 0 0 0 255 0 0 255 
149 89 4.10985 0 0 0 255 0 0 255 
151 89 4.36179 0 0 0 255 0 0 255 
154 89 4.44004 0 0 0 255 0 0 255 
156 89 4.52297 0 0 0 255 0 0 255 
158 89 4.41052 0 0 0 255 0 0 255 
160 89 4.3233 0 0 0 255 0 0 255 
163 89 4.24441 0 0 0 255 0 0 255 
165 89 4.13086 0 0 0 255 0 0 255 
167 89 4.0795 0 0 0 255 0 0 255 
169 89 3.91222 0 0 0 255 0 0 255 
172 89 3.72878 0 0 0 255 0 0 255 
174 89 3.45928 0 0 0 255 0 0 255 
176 89 3.06677 0 0 0 255 0 0 255 
178 89 2.71718 0 0 0 255 0 0 255 
181 89 2.02745 0 0 0 255 0 0 255 
183 89 1.36108 0 0 0 255 0 0 255 
185 89 1.8589 0 0 0 255 0 0 255 
188 89 2.01599 0 0 0 255 0 0 255 
190 89 2.01393 0 0 0 255 0 0 255 
192 89 2.2488 0 0 0 255 0 0 255 
194 89 2.24138 0 0 0 255 0 0 255 
197 89 2.30279 0 0 0 255 0 0 255 
199 89 2.34189 0 0 0 255 0 0 255 
201 89 2.4228 0 0 0 255 0 0 255 
203 89 2.41437 0 0 0 255 0 0 255 
208 89 2.39346 0 0 0 255 0 0 255 
210 89 2.47437 0 0 0 255 0 0 255 
212 89 2.47213 0 0 0 255 0 0 255 
215 89 2.47348 0 0 0 255 0 0 255 
217 89 2.5197 0 0 0 255 0 0 255 
219 89 2.57361 0 0 0 255 0 0 255 
221 89 2.58574 0 0 0 255 0 0 255 
111 90 2.87688 0 0 0 255 0 0 255 
113 90 2.89879 0 0 0 255 0 0 255 
115 90 2.92069 0 0 0 255 0 0 255 
120 90 3.16293 0 0 0 255 0 0 255 
122 90 2.96566 0 0 0 255 0 0 255 
124 90 3.02267 0 0 0 255 0 0 255 
129 90 3.14477 0 0 0 255 0 0 255 
131 90 3.22409 0 0 0 255 0 0 255 
133 90 3.24826 0 0 0 255 0 0 255 
136 90 3.27543 0 0 0 255 0 0 255 
138 90 3.32614 0 0 0 255 0 0 255 
140 90 3.34781 0 0 0 255 0 0 255 
142 90 3.34725 0 0 0 255 0 0 255 
145 90 3.6114 0 0 0 255 0 0 255 
147 90 3.85818 0 0 0 255 0 0 255 
149 90 4.16324 0 0 0 255 0 0 255 
151 90 4.36763 0 0 0 255 0 0 255 
154 90 4.46403 0 0 0 255 0 0 255 
156 90 4.65699 0 0 0 255 0 0 255 
158 90 4.32779 0 0 0 255 0 0 255 
160 90 4.29611 0 0 0 255 0 0 255 
163 90 4.28068 0 0 0 255 0 0 255 
165 90 4.10718 0 0 0 255 0 0 255 
167 90 4.04449 0 0 0 255 0 0 255 
169 90 3.92131 0 0 0 255 0 0 255 
171 90 3.72465 0 0 0 255 0 0 255 
172 90 3.7 0 0 0 255 0 0 255 
174 90 3.45024 0 0 0 255 0 0 255 
176 90 3.05718 0 0 0 255 0 0 255 
178 90 2.71212 0 0 0 255 0 0 255 
181 90 2.06696 0 0 0 255 0 0 255 
183 90 1.41297 0 0 0 255 0 0 255 
185 90 1.83286 0 0 0 255 0 0 255 
188 90 2.01751 0 0 0 255 0 0 255 
190 90 2.0102 0 0 0 255 0 0 255 
192 90 2.18425 0 0 0 255 0 0 255 
194 90 2.27601 0 0 0 255 0 0 255 
197 90 2.34496 0 0 0 255 0 0 255 
199 90 2.33015 0 0 0 255 0 0 255 
201 90 2.42244 0 0 0 255 0 0 255 
203 90 2.28115 0 0 0 255 0 0 255 
208 90 2.36692 0 0 0 255 0 0 255 
210 90 2.44112 0 0 0 255 0 0 255 
212 90 2.4429 0 0 0 255 0 0 255 
215 90 2.49899 0 0 0 255 0 0 255 
217 90 2.48092 0 0 0 255 0 0 255 
219 90 2.60001 0 0 0 255 0 0 255 
221 90 2.5782 0 0 0 255 0 0 255 
111 91 2.88317 0 0 0 255 0 0 255 
113 91 2.8691 0 0 0 255 0 0 255 
115 91 2.86902 0 0 0 255 0 0 255 
120 91 3.11824 0 0 0 255 0 0 255 
122 91 3.11284 0 0 0 255 0 0 255 
124 91 2.96511 0 0 0 255 0 0 255 
129 91 3.14089 0 0 0 255 0 0 255 
131 91 3.06316 0 0 0 255 0 0 255 
133 91 3.22914 0 0 0 255 0 0 255 
136 91 3.26052 0 0 0 255 0 0 255 
138 91 3.29145 0 0 0 255 0 0 255 
140 91 3.33164 0 0 0 255 0 0 255 
142 91 3.27821 0 0 0 255 0 0 255 
145 91 3.45957 0 0 0 255 0 0 255 
147 91 3.81777 0 0 0 255 0 0 255 
149 91 4.11711 0 0 0 255 0 0 255 
151 91 4.34385 0 0 0 255 0 0 255 
154 91 4.38298 0 0 0 255 0 0 255 
156 91 4.63696 0 0 0 255 0 0 255 
158 91 4.34187 0 0 0 255 0 0 255 
160 91 4.32611 0 0 0 255 0 0 255 
163 91 4.26061 0 0 0 255 0 0 255 
165 91 4.11734 0 0 0 255 0 0 255 
167 91 4.08873 0 0 0 255 0 0 255 
169 91 3.91223 0 0 0 255 0 0 255 
174 91 3.43816 0 0 0 255 0 0 255 
176 91 3.0636 0 0 0 255 0 0 255 
178 91 2.58761 0 0 0 255 0 0 255 
181 91 2.07926 0 0 0 255 0 0 255 
183 91 1.4074 0 0 0 255 0 0 255 
185 91 1.64956 0 0 0 255 0 0 255 
188 91 2.14185 0 0 0 255 0 0 255 
190 91 2.05424 0 0 0 255 0 0 255 
192 91 2.21438 0 0 0 255 0 0 255 
194 91 2.22853 0 0 0 255 0 0 255 
199 91 2.40058 0 0 0 255 0 0 255 
201 91 2.38642 0 0 0 255 0 0 255 
203 91 2.44454 0 0 0 255 0 0 255 
210 91 2.42877 0 0 0 255 0 0 255 
212 91 2.43596 0 0 0 255 0 0 255 
215 91 2.46133 0 0 0 255 0 0 255 
217 91 2.50834 0 0 0 255 0 0 255 
219 91 2.54481 0 0 0 255 0 0 255 
221 91 2.59484 0 0 0 255 0 0 255 
111 92 2.89122 0 0 0 255 0 0 255 
113 92 2.87327 0 0 0 255 0 0 255 
115 92 2.82724 0 0 0 255 0 0 255 
120 92 3.1064 0 0 0 255 0 0 255 
122 92 2.96495 0 0 0 255 0 0 255 
124 92 2.98944 0 0 0 255 0 0 255 
129 92 3.06581 0 0 0 255 0 0 255 
131 92 3.06809 0 0 0 255 0 0 255 
133 92 3.09161 0 0 0 255 0 0 255 
136 92 3.245 0 0 0 255 0 0 255 
138 92 3.27921 0 0 0 255 0 0 255 
140 92 3.30089 0 0 0 255 0 0 255 
142 92 3.28932 0 0 0 255 0 0 255 
145 92 3.34176 0 0 0 255 0 0 255 
147 92 3.81703 0 0 0 255 0 0 255 
149 92 4.00468 0 0 0 255 0 0 255 
151 92 4.23883 0 0 0 255 0 0 255 
154 92 4.40606 0 0 0 255 0 0 255 
156 92 4.51911 0 0 0 255 0 0 255 
158 92 4.34375 0 0 0 255 0 0 255 
160 92 4.31176 0 0 0 255 0 0 255 
163 92 4.26111 0 0 0 255 0 0 255 
165 92 4.13996 0 0 0 255 0 0 255 
167 92 4.07051 0 0 0 255 0 0 255 
169 92 3.877 0 0 0 255 0 0 255 
171 92 3.71723 0 0 0 255 0 0 255 
172 92 3.70301 0 0 0 255 0 0 255 
174 92 3.32939 0 0 0 255 0 0 255 
176 92 3.04676 0 0 0 255 0 0 255 
178 92 2.71211 0 0 0 255 0 0 255 
181 92 2.07479 0 0 0 255 0 0 255 
183 92 1.58689 0 0 0 255 0 0 255 
185 92 1.90034 0 0 0 255 0 0 255 
188 92 2.17401 0 0 0 255 0 0 255 
190 92 2.04368 0 0 0 255 0 0 255 
192 92 2.20374 0 0 0 255 0 0 255 
194 92 2.25868 0 0 0 255 0 0 255 
199 92 2.35656 0 0 0 255 0 0 255 
201 92 2.30287 0 0 0 255 0 0 255 
203 92 2.31138 0 0 0 255 0 0 255 
210 92 2.4259 0 0 0 255 0 0 255 
212 92 2.43705 0 0 0 255 0 0 255 
215 92 2.46681 0 0 0 255 0 0 255 
217 92 2.51795 0 0 0 255 0 0 255 
219 92 2.56949 0 0 0 255 0 0 255 
221 92 2.47361 0 0 0 255 0 0 255 
224 92 2.48447 0 0 0 255 0 0 255 
113 93 2.83297 0 0 0 255 0 0 255 
115 93 2.85753 0 0 0 255 0 0 255 
120 93 2.99398 0 0 0 255 0 0 255 
122 93 2.97819 0 0 0 255 0 0 255 
124 93 2.95055 0 0 0 255 0 0 255 
129 93 3.00555 0 0 0 255 0 0 255 
131 93 3.05637 0 0 0 255 0 0 255 
133 93 3.06643 0 0 0 255 0 0 255 
136 93 3.0779 0 0 0 255 0 0 255 
138 93 3.26287 0 0 0 255 0 0 255 
140 93 3.29635 0 0 0 255 0 0 255 
142 93 3.27354 0 0 0 255 0 0 255 
145 93 3.37475 0 0 0 255 0 0 255 
147 93 3.7384 0 0 0 255 0 0 255 
149 93 4.01217 0 0 0 255 0 0 255 
151 93 4.37317 0 0 0 255 0 0 255 
154 93 4.43997 0 0 0 255 0 0 255 
156 93 4.47675 0 0 0 255 0 0 255 
158 93 4.32311 0 0 0 255 0 0 255 
160 93 4.27515 0 0 0 255 0 0 255 
162 93 4.26462 0 0 0 255 0 0 255 
163 93 4.23715 0 0 0 255 0 0 255 
165 93 4.10976 0 0 0 255 0 0 255 
167 93 3.9807 0 0 0 255 0 0 255 
169 93 3.89005 0 0 0 255 0 0 255 
171 93 3.76038 0 0 0 255 0 0 255 
174 93 3.46984 0 0 0 255 0 0 255 
176 93 3.08831 0 0 0 255 0 0 255 
178 93 2.62404 0 0 0 255 0 0 255 
181 93 2.09226 0 0 0 255 0 0 255 
183 93 1.40597 0 0 0 255 0 0 255 
185 93 1.85352 0 0 0 255 0 0 255 
187 93 2.21877 0 0 0 255 0 0 255 
188 93 2.13148 0 0 0 255 0 0 255 
190 93 2.0389 0 0 0 255 0 0 255 
192 93 2.2485 0 0 0 255 0 0 255 
194 93 2.28071 0 0 0 255 0 0 255 
199 93 2.38426 0 0 0 255 0 0 255 
201 93 2.30226 0 0 0 255 0 0 255 
203 93 2.2869 0 0 0 255 0 0 255 
206 93 2.3245 0 0 0 255 0 0 255 
210 93 2.39639 0 0 0 255 0 0 255 
212 93 2.43063 0 0 0 255 0 0 255 
215 93 2.42223 0 0 0 255 0 0 255 
217 93 2.45624 0 0 0 255 0 0 255 
219 93 2.35675 0 0 0 255 0 0 255 
221 93 2.41586 0 0 0 255 0 0 255 
224 93 2.51845 0 0 0 255 0 0 255 
226 93 2.53312 0 0 0 255 0 0 255 
113 94 2.82624 0 0 0 255 0 0 255 
115 94 2.81698 0 0 0 255 0 0 255 
120 94 2.94273 0 0 0 255 0 0 255 
122 94 2.92938 0 0 0 255 0 0 255 
124 94 2.94958 0 0 0 255 0 0 255 
129 94 2.99744 0 0 0 255 0 0 255 
131 94 3.01454 0 0 0 255 0 0 255 
133 94 2.99275 0 0 0 255 0 0 255 
136 94 3.02166 0 0 0 255 0 0 255 
138 94 3.22491 0 0 0 255 0 0 255 
140 94 3.26355 0 0 0 255 0 0 255 
142 94 3.1315 0 0 0 255 0 0 255 
145 94 3.33384 0 0 0 255 0 0 255 
147 94 3.73919 0 0 0 255 0 0 255 
149 94 4.08521 0 0 0 255 0 0 255 
151 94 4.37424 0 0 0 255 0 0 255 
154 94 4.45172 0 0 0 255 0 0 255 
158 94 4.42904 0 0 0 255 0 0 255 
160 94 4.33881 0 0 0 255 0 0 255 
163 94 4.29326 0 0 0 255 0 0 255 
165 94 4.16646 0 0 0 255 0 0 255 
167 94 4.07211 0 0 0 255 0 0 255 
169 94 3.92092 0 0 0 255 0 0 255 
171 94 3.69938 0 0 0 255 0 0 255 
174 94 3.45355 0 0 0 255 0 0 255 
176 94 3.04553 0 0 0 255 0 0 255 
178 94 2.73338 0 0 0 255 0 0 255 
181 94 2.09303 0 0 0 255 0 0 255 
183 94 1.44669 0 0 0 255 0 0 255 
185 94 1.87883 0 0 0 255 0 0 255 
190 94 2.18415 0 0 0 255 0 0 255 
192 94 2.196 0 0 0 255 0 0 255 
194 94 2.28759 0 0 0 255 0 0 255 
199 94 2.2345 0 0 0 255 0 0 255 
201 94 2.40895 0 0 0 255 0 0 255 
203 94 2.28043 0 0 0 255 0 0 255 
206 94 2.29319 0 0 0 255 0 0 255 
210 94 2.39231 0 0 0 255 0 0 255 
212 94 2.44661 0 0 0 255 0 0 255 
215 94 2.46461 0 0 0 255 0 0 255 
217 94 2.47599 0 0 0 255 0 0 255 
219 94 2.53691 0 0 0 255 0 0 255 
221 94 2.4245 0 0 0 255 0 0 255 
224 94 2.46419 0 0 0 255 0 0 255 
226 94 2.48035 0 0 0 255 0 0 255 
113 95 2.79034 0 0 0 255 0 0 255 
115 95 2.81731 0 0 0 255 0 0 255 
118 95 2.90148 0 0 0 255 0 0 255 
120 95 2.93606 0 0 0 255 0 0 255 
122 95 2.95551 0 0 0 255 0 0 255 
124 95 2.90342 0 0 0 255 0 0 255 
129 95 2.95228 0 0 0 255 0 0 255 
131 95 2.96742 0 0 0 255 0 0 255 
133 95 2.96647 0 0 0 255 0 0 255 
136 95 3.05418 0 0 0 255 0 0 255 
138 95 3.10047 0 0 0 255 0 0 255 
140 95 3.14052 0 0 0 255 0 0 255 
142 95 3.10474 0 0 0 255 0 0 255 
145 95 3.36339 0 0 0 255 0 0 255 
147 95 3.88741 0 0 0 255 0 0 255 
149 95 4.16157 0 0 0 255 0 0 255 
151 95 4.26803 0 0 0 255 0 0 255 
154 95 4.41763 0 0 0 255 0 0 255 
158 95 4.30404 0 0 0 255 0 0 255 
160 95 4.3212 0 0 0 255 0 0 255 
163 95 4.26572 0 0 0 255 0 0 255 
165 95 4.1789 0 0 0 255 0 0 255 
167 95 3.92479 0 0 0 255 0 0 255 
169 95 3.90634 0 0 0 255 0 0 255 
171 95 3.68662 0 0 0 255 0 0 255 
174 95 3.40987 0 0 0 255 0 0 255 
176 95 3.07385 0 0 0 255 0 0 255 
178 95 2.75045 0 0 0 255 0 0 255 
181 95 2.10343 0 0 0 255 0 0 255 
183 95 1.37882 0 0 0 255 0 0 255 
185 95 1.88618 0 0 0 255 0 0 255 
190 95 2.1891 0 0 0 255 0 0 255 
192 95 2.24753 0 0 0 255 0 0 255 
194 95 2.26268 0 0 0 255 0 0 255 
196 95 2.34515 0 0 0 255 0 0 255 
199 95 2.35512 0 0 0 255 0 0 255 
201 95 2.41975 0 0 0 255 0 0 255 
203 95 2.32483 0 0 0 255 0 0 255 
210 95 2.38484 0 0 0 255 0 0 255 
212 95 2.44697 0 0 0 255 0 0 255 
215 95 2.29272 0 0 0 255 0 0 255 
217 95 2.33341 0 0 0 255 0 0 255 
219 95 2.3623 0 0 0 255 0 0 255 
221 95 2.41747 0 0 0 255 0 0 255 
224 95 2.45048 0 0 0 255 0 0 255 
226 95 2.49778 0 0 0 255 0 0 255 
115 96 2.70847 0 0 0 255 0 0 255 
118 96 2.85924 0 0 0 255 0 0 255 
122 96 2.92881 0 0 0 255 0 0 255 
124 96 2.91955 0 0 0 255 0 0 255 
127 96 2.88992 0 0 0 255 0 0 255 
129 96 2.94289 0 0 0 255 0 0 255 
131 96 2.92415 0 0 0 255 0 0 255 
133 96 2.94524 0 0 0 255 0 0 255 
136 96 3.0145 0 0 0 255 0 0 255 
138 96 3.08703 0 0 0 255 0 0 255 
140 96 3.13522 0 0 0 255 0 0 255 
142 96 3.08596 0 0 0 255 0 0 255 
145 96 3.61496 0 0 0 255 0 0 255 
147 96 3.94557 0 0 0 255 0 0 255 
149 96 4.17125 0 0 0 255 0 0 255 
151 96 4.26266 0 0 0 255 0 0 255 
154 96 4.40688 0 0 0 255 0 0 255 
158 96 4.33252 0 0 0 255 0 0 255 
160 96 4.31501 0 0 0 255 0 0 255 
163 96 4.24977 0 0 0 255 0 0 255 
165 96 4.11901 0 0 0 255 0 0 255 
167 96 4.05809 0 0 0 255 0 0 255 
169 96 3.94073 0 0 0 255 0 0 255 
171 96 3.56594 0 0 0 255 0 0 255 
174 96 3.43329 0 0 0 255 0 0 255 
176 96 3.03125 0 0 0 255 0 0 255 
178 96 2.62115 0 0 0 255 0 0 255 
181 96 2.11367 0 0 0 255 0 0 255 
183 96 1.53749 0 0 0 255 0 0 255 
185 96 1.93471 0 0 0 255 0 0 255 
190 96 2.0858 0 0 0 255 0 0 255 
192 96 2.29678 0 0 0 255 0 0 255 
194 96 2.23304 0 0 0 255 0 0 255 
196 96 2.30337 0 0 0 255 0 0 255 
199 96 2.37042 0 0 0 255 0 0 255 
201 96 2.40691 0 0 0 255 0 0 255 
203 96 2.26315 0 0 0 255 0 0 255 
208 96 2.3465 0 0 0 255 0 0 255 
210 96 2.38524 0 0 0 255 0 0 255 
212 96 2.42589 0 0 0 255 0 0 255 
215 96 2.31107 0 0 0 255 0 0 255 
217 96 2.34181 0 0 0 255 0 0 255 
219 96 2.37111 0 0 0 255 0 0 255 
221 96 2.42999 0 0 0 255 0 0 255 
224 96 2.47033 0 0 0 255 0 0 255 
226 96 2.46706 0 0 0 255 0 0 255 
115 97 2.78192 0 0 0 255 0 0 255 
118 97 2.86533 0 0 0 255 0 0 255 
122 97 2.89908 0 0 0 255 0 0 255 
124 97 2.93174 0 0 0 255 0 0 255 
127 97 2.91243 0 0 0 255 0 0 255 
129 97 2.93565 0 0 0 255 0 0 255 
131 97 2.93727 0 0 0 255 0 0 255 
133 97 2.83132 0 0 0 255 0 0 255 
136 97 2.98021 0 0 0 255 0 0 255 
138 97 3.10713 0 0 0 255 0 0 255 
140 97 3.04386 0 0 0 255 0 0 255 
142 97 3.18382 0 0 0 255 0 0 255 
145 97 3.82101 0 0 0 255 0 0 255 
147 97 4.07868 0 0 0 255 0 0 255 
149 97 4.23509 0 0 0 255 0 0 255 
151 97 4.37462 0 0 0 255 0 0 255 
154 97 4.39517 0 0 0 255 0 0 255 
158 97 4.32794 0 0 0 255 0 0 255 
160 97 4.3586 0 0 0 255 0 0 255 
162 97 4.1545 0 0 0 255 0 0 255 
165 97 4.15615 0 0 0 255 0 0 255 
167 97 3.95457 0 0 0 255 0 0 255 
169 97 3.77985 0 0 0 255 0 0 255 
171 97 3.68642 0 0 0 255 0 0 255 
174 97 3.32322 0 0 0 255 0 0 255 
176 97 3.06173 0 0 0 255 0 0 255 
178 97 2.57519 0 0 0 255 0 0 255 
181 97 2.08977 0 0 0 255 0 0 255 
183 97 1.53707 0 0 0 255 0 0 255 
185 97 1.947 0 0 0 255 0 0 255 
190 97 2.24229 0 0 0 255 0 0 255 
192 97 2.26727 0 0 0 255 0 0 255 
194 97 2.30479 0 0 0 255 0 0 255 
196 97 2.33517 0 0 0 255 0 0 255 
199 97 2.23337 0 0 0 255 0 0 255 
201 97 2.3892 0 0 0 255 0 0 255 
203 97 2.28119 0 0 0 255 0 0 255 
208 97 2.33773 0 0 0 255 0 0 255 
210 97 2.36336 0 0 0 255 0 0 255 
212 97 2.26025 0 0 0 255 0 0 255 
215 97 2.3118 0 0 0 255 0 0 255 
217 97 2.32029 0 0 0 255 0 0 255 
219 97 2.40697 0 0 0 255 0 0 255 
221 97 2.41424 0 0 0 255 0 0 255 
224 97 2.30382 0 0 0 255 0 0 255 
226 97 2.26702 0 0 0 255 0 0 255 
115 98 2.69282 0 0 0 255 0 0 255 
118 98 2.82548 0 0 0 255 0 0 255 
122 98 2.90106 0 0 0 255 0 0 255 
124 98 2.90915 0 0 0 255 0 0 255 
127 98 2.8189 0 0 0 255 0 0 255 
129 98 2.927 0 0 0 255 0 0 255 
131 98 2.81869 0 0 0 255 0 0 255 
133 98 2.82247 0 0 0 255 0 0 255 
136 98 2.87986 0 0 0 255 0 0 255 
138 98 3.01376 0 0 0 255 0 0 255 
140 98 3.01047 0 0 0 255 0 0 255 
142 98 3.33874 0 0 0 255 0 0 255 
145 98 3.87188 0 0 0 255 0 0 255 
147 98 4.08351 0 0 0 255 0 0 255 
149 98 4.21409 0 0 0 255 0 0 255 
151 98 4.28842 0 0 0 255 0 0 255 
154 98 4.43759 0 0 0 255 0 0 255 
158 98 4.30651 0 0 0 255 0 0 255 
160 98 4.29623 0 0 0 255 0 0 255 
162 98 4.25828 0 0 0 255 0 0 255 
165 98 4.13299 0 0 0 255 0 0 255 
167 98 3.96148 0 0 0 255 0 0 255 
169 98 3.86311 0 0 0 255 0 0 255 
171 98 3.53173 0 0 0 255 0 0 255 
174 98 3.32613 0 0 0 255 0 0 255 
176 98 3.08647 0 0 0 255 0 0 255 
178 98 2.55415 0 0 0 255 0 0 255 
181 98 2.11899 0 0 0 255 0 0 255 
183 98 1.39789 0 0 0 255 0 0 255 
185 98 1.91045 0 0 0 255 0 0 255 
187 98 2.06384 0 0 0 255 0 0 255 
190 98 2.25667 0 0 0 255 0 0 255 
192 98 2.28874 0 0 0 255 0 0 255 
194 98 2.26952 0 0 0 255 0 0 255 
196 98 2.34173 0 0 0 255 0 0 255 
199 98 2.35321 0 0 0 255 0 0 255 
201 98 2.2736 0 0 0 255 0 0 255 
203 98 2.30177 0 0 0 255 0 0 255 
208 98 2.346 0 0 0 255 0 0 255 
210 98 2.34246 0 0 0 255 0 0 255 
212 98 2.27737 0 0 0 255 0 0 255 
215 98 2.26033 0 0 0 255 0 0 255 
217 98 2.29004 0 0 0 255 0 0 255 
219 98 2.3143 0 0 0 255 0 0 255 
221 98 2.37824 0 0 0 255 0 0 255 
224 98 2.30217 0 0 0 255 0 0 255 
226 98 2.24373 0 0 0 255 0 0 255 
115 99 2.66464 0 0 0 255 0 0 255 
122 99 2.87667 0 0 0 255 0 0 255 
124 99 2.91982 0 0 0 255 0 0 255 
129 99 2.92237 0 0 0 255 0 0 255 
131 99 2.9262 0 0 0 255 0 0 255 
133 99 2.86918 0 0 0 255 0 0 255 
136 99 2.88099 0 0 0 255 0 0 255 
138 99 3.00785 0 0 0 255 0 0 255 
140 99 3.07089 0 0 0 255 0 0 255 
142 99 3.61064 0 0 0 255 0 0 255 
145 99 4.06379 0 0 0 255 0 0 255 
147 99 4.18881 0 0 0 255 0 0 255 
149 99 4.34008 0 0 0 255 0 0 255 
151 99 4.25708 0 0 0 255 0 0 255 
154 99 4.41145 0 0 0 255 0 0 255 
158 99 4.31749 0 0 0 255 0 0 255 
160 99 4.29353 0 0 0 255 0 0 255 
162 99 4.1574 0 0 0 255 0 0 255 
165 99 4.09385 0 0 0 255 0 0 255 
167 99 3.93597 0 0 0 255 0 0 255 
169 99 3.89338 0 0 0 255 0 0 255 
171 99 3.53454 0 0 0 255 0 0 255 
174 99 3.34357 0 0 0 255 0 0 255 
176 99 3.02632 0 0 0 255 0 0 255 
178 99 2.55957 0 0 0 255 0 0 255 
181 99 2.03183 0 0 0 255 0 0 255 
183 99 1.62217 0 0 0 255 0 0 255 
185 99 1.87693 0 0 0 255 0 0 255 
187 99 2.22124 0 0 0 255 0 0 255 
190 99 2.29717 0 0 0 255 0 0 255 
192 99 2.30155 0 0 0 255 0 0 255 
194 99 2.31877 0 0 0 255 0 0 255 
196 99 2.29683 0 0 0 255 0 0 255 
199 99 2.3751 0 0 0 255 0 0 255 
201 99 2.42273 0 0 0 255 0 0 255 
203 99 2.29241 0 0 0 255 0 0 255 
208 99 2.30621 0 0 0 255 0 0 255 
210 99 2.23651 0 0 0 255 0 0 255 
212 99 2.22075 0 0 0 255 0 0 255 
215 99 2.29028 0 0 0 255 0 0 255 
217 99 2.23063 0 0 0 255 0 0 255 
219 99 2.2875 0 0 0 255 0 0 255 
221 99 2.21087 0 0 0 255 0 0 255 
224 99 2.24732 0 0 0 255 0 0 255 
226 99 2.2455 0 0 0 255 0 0 255 
115 100 2.69241 0 0 0 255 0 0 255 
122 100 2.8802 0 0 0 255 0 0 255 
124 100 2.78916 0 0 0 255 0 0 255 
129 100 2.81088 0 0 0 255 0 0 255 
131 100 2.84533 0 0 0 255 0 0 255 
133 100 2.84953 0 0 0 255 0 0 255 
136 100 3.00464 0 0 0 255 0 0 255 
138 100 3.0662 0 0 0 255 0 0 255 
140 100 3.13408 0 0 0 255 0 0 255 
142 100 3.76967 0 0 0 255 0 0 255 
145 100 4.04256 0 0 0 255 0 0 255 
147 100 4.17838 0 0 0 255 0 0 255 
149 100 4.35766 0 0 0 255 0 0 255 
151 100 4.27572 0 0 0 255 0 0 255 
154 100 4.41208 0 0 0 255 0 0 255 
158 100 4.2522 0 0 0 255 0 0 255 
160 100 4.28915 0 0 0 255 0 0 255 
162 100 4.142 0 0 0 255 0 0 255 
165 100 4.10644 0 0 0 255 0 0 255 
167 100 3.92465 0 0 0 255 0 0 255 
169 100 3.84539 0 0 0 255 0 0 255 
171 100 3.56049 0 0 0 255 0 0 255 
174 100 3.31627 0 0 0 255 0 0 255 
176 100 3.00485 0 0 0 255 0 0 255 
178 100 2.57926 0 0 0 255 0 0 255 
181 100 2.07501 0 0 0 255 0 0 255 
183 100 1.56093 0 0 0 255 0 0 255 
185 100 1.96531 0 0 0 255 0 0 255 
187 100 2.15515 0 0 0 255 0 0 255 
190 100 2.25164 0 0 0 255 0 0 255 
192 100 2.31353 0 0 0 255 0 0 255 
194 100 2.32783 0 0 0 255 0 0 255 
196 100 2.37489 0 0 0 255 0 0 255 
199 100 2.24857 0 0 0 255 0 0 255 
201 100 2.2907 0 0 0 255 0 0 255 
203 100 2.2927 0 0 0 255 0 0 255 
208 100 2.28931 0 0 0 255 0 0 255 
210 100 2.22516 0 0 0 255 0 0 255 
212 100 2.24287 0 0 0 255 0 0 255 
215 100 2.25801 0 0 0 255 0 0 255 
217 100 2.28105 0 0 0 255 0 0 255 
219 100 2.13574 0 0 0 255 0 0 255 
221 100 2.21406 0 0 0 255 0 0 255 
224 100 2.22781 0 0 0 255 0 0 255 
226 100 2.20911 0 0 0 255 0 0 255 
115 101 2.71201 0 0 0 255 0 0 255 
120 101 2.86437 0 0 0 255 0 0 255 
122 101 2.87048 0 0 0 255 0 0 255 
124 101 2.77478 0 0 0 255 0 0 255 
129 101 2.79683 0 0 0 255 0 0 255 
131 101 2.95472 0 0 0 255 0 0 255 
133 101 2.99321 0 0 0 255 0 0 255 
136 101 2.98195 0 0 0 255 0 0 255 
138 101 3.08965 0 0 0 255 0 0 255 
140 101 3.33447 0 0 0 255 0 0 255 
142 101 3.81679 0 0 0 255 0 0 255 
145 101 4.08445 0 0 0 255 0 0 255 
147 101 4.20526 0 0 0 255 0 0 255 
149 101 4.26673 0 0 0 255 0 0 255 
151 101 4.40106 0 0 0 255 0 0 255 
154 101 4.39696 0 0 0 255 0 0 255 
158 101 4.29354 0 0 0 255 0 0 255 
160 101 4.29062 0 0 0 255 0 0 255 
162 101 4.16099 0 0 0 255 0 0 255 
165 101 4.05351 0 0 0 255 0 0 255 
167 101 3.83088 0 0 0 255 0 0 255 
169 101 3.65957 0 0 0 255 0 0 255 
171 101 3.56575 0 0 0 255 0 0 255 
174 101 3.23445 0 0 0 255 0 0 255 
176 101 2.87037 0 0 0 255 0 0 255 
178 101 2.49733 0 0 0 255 0 0 255 
181 101 2.0664 0 0 0 255 0 0 255 
183 101 1.60552 0 0 0 255 0 0 255 
185 101 2.13919 0 0 0 255 0 0 255 
187 101 2.23574 0 0 0 255 0 0 255 
190 101 2.3064 0 0 0 255 0 0 255 
192 101 2.3586 0 0 0 255 0 0 255 
194 101 2.34822 0 0 0 255 0 0 255 
196 101 2.38548 0 0 0 255 0 0 255 
199 101 2.37322 0 0 0 255 0 0 255 
201 101 2.29206 0 0 0 255 0 0 255 
203 101 2.26906 0 0 0 255 0 0 255 
208 101 2.18801 0 0 0 255 0 0 255 
210 101 2.19347 0 0 0 255 0 0 255 
212 101 2.18738 0 0 0 255 0 0 255 
215 101 2.21618 0 0 0 255 0 0 255 
217 101 2.15414 0 0 0 255 0 0 255 
219 101 2.184 0 0 0 255 0 0 255 
221 101 2.14563 0 0 0 255 0 0 255 
224 101 2.14446 0 0 0 255 0 0 255 
226 101 2.26403 0 0 0 255 0 0 255 
228 101 2.13745 0 0 0 255 0 0 255 
115 102 2.70808 0 0 0 255 0 0 255 
120 102 2.73704 0 0 0 255 0 0 255 
122 102 2.73652 0 0 0 255 0 0 255 
124 102 2.87809 0 0 0 255 0 0 255 
129 102 2.84466 0 0 0 255 0 0 255 
131 102 2.95023 0 0 0 255 0 0 255 
133 102 3.10762 0 0 0 255 0 0 255 
136 102 3.13079 0 0 0 255 0 0 255 
138 102 3.2607 0 0 0 255 0 0 255 
140 102 3.40865 0 0 0 255 0 0 255 
142 102 3.82679 0 0 0 255 0 0 255 
145 102 4.08282 0 0 0 255 0 0 255 
147 102 4.19577 0 0 0 255 0 0 255 
149 102 4.34711 0 0 0 255 0 0 255 
151 102 4.28597 0 0 0 255 0 0 255 
154 102 4.42867 0 0 0 255 0 0 255 
156 102 4.35001 0 0 0 255 0 0 255 
158 102 4.30946 0 0 0 255 0 0 255 
160 102 4.24314 0 0 0 255 0 0 255 
162 102 4.17458 0 0 0 255 0 0 255 
165 102 4.02943 0 0 0 255 0 0 255 
167 102 3.86522 0 0 0 255 0 0 255 
169 102 3.69043 0 0 0 255 0 0 255 
171 102 3.50919 0 0 0 255 0 0 255 
174 102 3.22045 0 0 0 255 0 0 255 
176 102 2.83577 0 0 0 255 0 0 255 
178 102 2.55703 0 0 0 255 0 0 255 
181 102 2.03574 0 0 0 255 0 0 255 
183 102 1.58528 0 0 0 255 0 0 255 
185 102 1.96934 0 0 0 255 0 0 255 
187 102 2.23089 0 0 0 255 0 0 255 
190 102 2.28734 0 0 0 255 0 0 255 
192 102 2.4924 0 0 0 255 0 0 255 
194 102 2.35979 0 0 0 255 0 0 255 
196 102 2.36975 0 0 0 255 0 0 255 
199 102 2.35827 0 0 0 255 0 0 255 
201 102 2.2349 0 0 0 255 0 0 255 
203 102 2.28088 0 0 0 255 0 0 255 
208 102 2.1339 0 0 0 255 0 0 255 
210 102 2.1496 0 0 0 255 0 0 255 
212 102 2.15702 0 0 0 255 0 0 255 
215 102 2.28417 0 0 0 255 0 0 255 
217 102 2.035 0 0 0 255 0 0 255 
219 102 2.08789 0 0 0 255 0 0 255 
221 102 2.16417 0 0 0 255 0 0 255 
224 102 2.06886 0 0 0 255 0 0 255 
226 102 2.04666 0 0 0 255 0 0 255 
228 102 2.09487 0 0 0 255 0 0 255 
120 103 2.87293 0 0 0 255 0 0 255 
122 103 2.76188 0 0 0 255 0 0 255 
124 103 2.78485 0 0 0 255 0 0 255 
129 103 3.0386 0 0 0 255 0 0 255 
131 103 3.20609 0 0 0 255 0 0 255 
133 103 3.23826 0 0 0 255 0 0 255 
136 103 3.27598 0 0 0 255 0 0 255 
138 103 3.32387 0 0 0 255 0 0 255 
140 103 3.41477 0 0 0 255 0 0 255 
142 103 3.8928 0 0 0 255 0 0 255 
147 103 4.23425 0 0 0 255 0 0 255 
149 103 4.25793 0 0 0 255 0 0 255 
151 103 4.26814 0 0 0 255 0 0 255 
154 103 4.31191 0 0 0 255 0 0 255 
156 103 4.2971 0 0 0 255 0 0 255 
158 103 4.26207 0 0 0 255 0 0 255 
160 103 4.23 0 0 0 255 0 0 255 
162 103 4.15907 0 0 0 255 0 0 255 
165 103 3.92492 0 0 0 255 0 0 255 
167 103 3.84808 0 0 0 255 0 0 255 
169 103 3.70299 0 0 0 255 0 0 255 
171 103 3.42891 0 0 0 255 0 0 255 
174 103 3.0981 0 0 0 255 0 0 255 
176 103 2.85564 0 0 0 255 0 0 255 
178 103 2.37736 0 0 0 255 0 0 255 
181 103 1.91651 0 0 0 255 0 0 255 
183 103 1.65741 0 0 0 255 0 0 255 
185 103 2.20854 0 0 0 255 0 0 255 
187 103 2.26515 0 0 0 255 0 0 255 
190 103 2.35027 0 0 0 255 0 0 255 
192 103 2.48598 0 0 0 255 0 0 255 
194 103 2.39819 0 0 0 255 0 0 255 
196 103 2.3805 0 0 0 255 0 0 255 
199 103 2.36167 0 0 0 255 0 0 255 
201 103 2.30768 0 0 0 255 0 0 255 
203 103 2.29705 0 0 0 255 0 0 255 
208 103 2.18781 0 0 0 255 0 0 255 
210 103 2.14907 0 0 0 255 0 0 255 
212 103 2.17752 0 0 0 255 0 0 255 
215 103 2.06379 0 0 0 255 0 0 255 
217 103 2.04916 0 0 0 255 0 0 255 
219 103 1.95116 0 0 0 255 0 0 255 
224 103 2.14353 0 0 0 255 0 0 255 
226 103 2.0451 0 0 0 255 0 0 255 
228 103 2.09155 0 0 0 255 0 0 255 
120 104 2.9002 0 0 0 255 0 0 255 
122 104 2.86974 0 0 0 255 0 0 255 
124 104 2.79761 0 0 0 255 0 0 255 
129 104 3.07299 0 0 0 255 0 0 255 
131 104 3.11566 0 0 0 255 0 0 255 
133 104 3.27498 0 0 0 255 0 0 255 
136 104 3.31924 0 0 0 255 0 0 255 
138 104 3.34397 0 0 0 255 0 0 255 
140 104 3.6004 0 0 0 255 0 0 255 
142 104 3.90843 0 0 0 255 0 0 255 
147 104 4.21026 0 0 0 255 0 0 255 
149 104 4.18963 0 0 0 255 0 0 255 
151 104 4.42487 0 0 0 255 0 0 255 
154 104 4.28647 0 0 0 255 0 0 255 
156 104 4.31435 0 0 0 255 0 0 255 
158 104 4.27109 0 0 0 255 0 0 255 
160 104 4.12762 0 0 0 255 0 0 255 
162 104 4.05273 0 0 0 255 0 0 255 
165 104 3.90908 0 0 0 255 0 0 255 
167 104 3.74592 0 0 0 255 0 0 255 
169 104 3.64244 0 0 0 255 0 0 255 
171 104 3.43565 0 0 0 255 0 0 255 
174 104 3.19223 0 0 0 255 0 0 255 
176 104 2.78025 0 0 0 255 0 0 255 
178 104 2.35325 0 0 0 255 0 0 255 
183 104 1.70542 0 0 0 255 0 0 255 
185 104 2.19544 0 0 0 255 0 0 255 
187 104 2.26211 0 0 0 255 0 0 255 
192 104 2.39422 0 0 0 255 0 0 255 
194 104 2.41539 0 0 0 255 0 0 255 
196 104 2.39476 0 0 0 255 0 0 255 
199 104 2.385 0 0 0 255 0 0 255 
201 104 2.29525 0 0 0 255 0 0 255 
203 104 2.26517 0 0 0 255 0 0 255 
208 104 2.12461 0 0 0 255 0 0 255 
210 104 2.12347 0 0 0 255 0 0 255 
212 104 2.16111 0 0 0 255 0 0 255 
215 104 2.03026 0 0 0 255 0 0 255 
217 104 2.08033 0 0 0 255 0 0 255 
219 104 2.03664 0 0 0 255 0 0 255 
224 104 1.95904 0 0 0 255 0 0 255 
226 104 2.05346 0 0 0 255 0 0 255 
228 104 2.09366 0 0 0 255 0 0 255 
120 105 2.91455 0 0 0 255 0 0 255 
124 105 2.93369 0 0 0 255 0 0 255 
129 105 3.201 0 0 0 255 0 0 255 
131 105 3.2966 0 0 0 255 0 0 255 
133 105 3.37502 0 0 0 255 0 0 255 
136 105 3.40531 0 0 0 255 0 0 255 
138 105 3.39838 0 0 0 255 0 0 255 
140 105 3.61007 0 0 0 255 0 0 255 
142 105 3.9391 0 0 0 255 0 0 255 
147 105 4.21079 0 0 0 255 0 0 255 
149 105 4.1965 0 0 0 255 0 0 255 
151 105 4.38218 0 0 0 255 0 0 255 
154 105 4.28402 0 0 0 255 0 0 255 
156 105 4.30894 0 0 0 255 0 0 255 
158 105 4.25169 0 0 0 255 0 0 255 
160 105 4.13341 0 0 0 255 0 0 255 
162 105 4.03994 0 0 0 255 0 0 255 
165 105 3.87635 0 0 0 255 0 0 255 
167 105 3.72541 0 0 0 255 0 0 255 
169 105 3.51465 0 0 0 255 0 0 255 
171 105 3.29288 0 0 0 255 0 0 255 
174 105 3.02845 0 0 0 255 0 0 255 
176 105 2.64336 0 0 0 255 0 0 255 
178 105 2.31186 0 0 0 255 0 0 255 
183 105 2.10774 0 0 0 255 0 0 255 
185 105 2.3923 0 0 0 255 0 0 255 
187 105 2.44628 0 0 0 255 0 0 255 
192 105 2.39412 0 0 0 255 0 0 255 
194 105 2.38739 0 0 0 255 0 0 255 
196 105 2.39635 0 0 0 255 0 0 255 
199 105 2.38112 0 0 0 255 0 0 255 
201 105 2.26853 0 0 0 255 0 0 255 
203 105 2.29115 0 0 0 255 0 0 255 
208 105 2.13139 0 0 0 255 0 0 255 
210 105 2.14976 0 0 0 255 0 0 255 
212 105 2.02453 0 0 0 255 0 0 255 
215 105 1.86998 0 0 0 255 0 0 255 
217 105 2.05986 0 0 0 255 0 0 255 
219 105 2.09871 0 0 0 255 0 0 255 
224 105 2.03223 0 0 0 255 0 0 255 
226 105 2.02479 0 0 0 255 0 0 255 
228 105 2.06453 0 0 0 255 0 0 255 
120 106 2.89343 0 0 0 255 0 0 255 
129 106 3.27522 0 0 0 255 0 0 255 
131 106 3.33707 0 0 0 255 0 0 255 
133 106 3.48076 0 0 0 255 0 0 255 
136 106 3.51037 0 0 0 255 0 0 255 
138 106 3.53401 0 0 0 255 0 0 255 
140 106 3.66537 0 0 0 255 0 0 255 
142 106 3.89756 0 0 0 255 0 0 255 
147 106 4.17954 0 0 0 255 0 0 255 
149 106 4.18353 0 0 0 255 0 0 255 
151 106 4.25694 0 0 0 255 0 0 255 
154 106 4.29537 0 0 0 255 0 0 255 
156 106 4.25161 0 0 0 255 0 0 255 
158 106 4.14588 0 0 0 255 0 0 255 
160 106 4.07203 0 0 0 255 0 0 255 
162 106 4.03413 0 0 0 255 0 0 255 
165 106 3.86984 0 0 0 255 0 0 255 
167 106 3.68744 0 0 0 255 0 0 255 
169 106 3.46421 0 0 0 255 0 0 255 
171 106 3.23367 0 0 0 255 0 0 255 
174 106 3.04308 0 0 0 255 0 0 255 
176 106 2.7279 0 0 0 255 0 0 255 
178 106 2.40311 0 0 0 255 0 0 255 
183 106 2.11224 0 0 0 255 0 0 255 
185 106 2.25027 0 0 0 255 0 0 255 
187 106 2.45997 0 0 0 255 0 0 255 
192 106 2.38096 0 0 0 255 0 0 255 
194 106 2.39198 0 0 0 255 0 0 255 
196 106 2.46197 0 0 0 255 0 0 255 
199 106 2.39696 0 0 0 255 0 0 255 
201 106 2.27688 0 0 0 255 0 0 255 
203 106 2.27118 0 0 0 255 0 0 255 
208 106 2.10292 0 0 0 255 0 0 255 
210 106 1.96286 0 0 0 255 0 0 255 
212 106 2.02332 0 0 0 255 0 0 255 
215 106 1.9804 0 0 0 255 0 0 255 
217 106 1.92356 0 0 0 255 0 0 255 
219 106 1.92335 0 0 0 255 0 0 255 
224 106 1.90451 0 0 0 255 0 0 255 
226 106 1.82791 0 0 0 255 0 0 255 
120 107 2.89041 0 0 0 255 0 0 255 
129 107 3.317 0 0 0 255 0 0 255 
131 107 3.49137 0 0 0 255 0 0 255 
133 107 3.56558 0 0 0 255 0 0 255 
136 107 3.58464 0 0 0 255 0 0 255 
138 107 3.57515 0 0 0 255 0 0 255 
140 107 3.65821 0 0 0 255 0 0 255 
142 107 3.91312 0 0 0 255 0 0 255 
147 107 4.13933 0 0 0 255 0 0 255 
149 107 4.20691 0 0 0 255 0 0 255 
151 107 4.23034 0 0 0 255 0 0 255 
154 107 4.25977 0 0 0 255 0 0 255 
156 107 4.25865 0 0 0 255 0 0 255 
158 107 4.14737 0 0 0 255 0 0 255 
160 107 4.11698 0 0 0 255 0 0 255 
162 107 3.93795 0 0 0 255 0 0 255 
165 107 3.85098 0 0 0 255 0 0 255 
167 107 3.65526 0 0 0 255 0 0 255 
169 107 3.41848 0 0 0 255 0 0 255 
171 107 3.24393 0 0 0 255 0 0 255 
174 107 2.9787 0 0 0 255 0 0 255 
176 107 2.57256 0 0 0 255 0 0 255 
178 107 2.24933 0 0 0 255 0 0 255 
183 107 2.09534 0 0 0 255 0 0 255 
185 107 2.22444 0 0 0 255 0 0 255 
187 107 2.31238 0 0 0 255 0 0 255 
192 107 2.49889 0 0 0 255 0 0 255 
194 107 2.38611 0 0 0 255 0 0 255 
196 107 2.4593 0 0 0 255 0 0 255 
199 107 2.42749 0 0 0 255 0 0 255 
201 107 2.30121 0 0 0 255 0 0 255 
203 107 2.30759 0 0 0 255 0 0 255 
208 107 2.11726 0 0 0 255 0 0 255 
210 107 1.96515 0 0 0 255 0 0 255 
212 107 1.97037 0 0 0 255 0 0 255 
215 107 2.09398 0 0 0 255 0 0 255 
217 107 1.88892 0 0 0 255 0 0 255 
219 107 1.85865 0 0 0 255 0 0 255 
222 107 1.59515 0 0 0 255 0 0 255 
224 107 1.73785 0 0 0 255 0 0 255 
226 107 1.7468 0 0 0 255 0 0 255 
120 108 2.74917 0 0 0 255 0 0 255 
129 108 3.30004 0 0 0 255 0 0 255 
131 108 3.5078 0 0 0 255 0 0 255 
133 108 3.53658 0 0 0 255 0 0 255 
136 108 3.57428 0 0 0 255 0 0 255 
138 108 3.63819 0 0 0 255 0 0 255 
140 108 3.80894 0 0 0 255 0 0 255 
142 108 3.90466 0 0 0 255 0 0 255 
145 108 4.10754 0 0 0 255 0 0 255 
147 108 4.15402 0 0 0 255 0 0 255 
149 108 4.16395 0 0 0 255 0 0 255 
151 108 4.19686 0 0 0 255 0 0 255 
153 108 4.17526 0 0 0 255 0 0 255 
156 108 4.19279 0 0 0 255 0 0 255 
158 108 4.12542 0 0 0 255 0 0 255 
160 108 4.03393 0 0 0 255 0 0 255 
162 108 4.03711 0 0 0 255 0 0 255 
165 108 3.87356 0 0 0 255 0 0 255 
167 108 3.62748 0 0 0 255 0 0 255 
169 108 3.39937 0 0 0 255 0 0 255 
171 108 3.1607 0 0 0 255 0 0 255 
174 108 2.97821 0 0 0 255 0 0 255 
176 108 2.54531 0 0 0 255 0 0 255 
178 108 2.11441 0 0 0 255 0 0 255 
183 108 2.35108 0 0 0 255 0 0 255 
185 108 2.21281 0 0 0 255 0 0 255 
187 108 2.43531 0 0 0 255 0 0 255 
192 108 2.39215 0 0 0 255 0 0 255 
194 108 2.54822 0 0 0 255 0 0 255 
196 108 2.44458 0 0 0 255 0 0 255 
199 108 2.42217 0 0 0 255 0 0 255 
201 108 2.30905 0 0 0 255 0 0 255 
203 108 2.25476 0 0 0 255 0 0 255 
208 108 2.05314 0 0 0 255 0 0 255 
210 108 1.87462 0 0 0 255 0 0 255 
212 108 1.94781 0 0 0 255 0 0 255 
215 108 1.83287 0 0 0 255 0 0 255 
217 108 1.82524 0 0 0 255 0 0 255 
219 108 1.92286 0 0 0 255 0 0 255 
222 108 1.70626 0 0 0 255 0 0 255 
224 108 1.73067 0 0 0 255 0 0 255 
226 108 1.81703 0 0 0 255 0 0 255 
120 109 2.65285 0 0 0 255 0 0 255 
129 109 3.34584 0 0 0 255 0 0 255 
131 109 3.51427 0 0 0 255 0 0 255 
133 109 3.54742 0 0 0 255 0 0 255 
136 109 3.65541 0 0 0 255 0 0 255 
138 109 3.64243 0 0 0 255 0 0 255 
140 109 3.80854 0 0 0 255 0 0 255 
142 109 3.93792 0 0 0 255 0 0 255 
145 109 3.95054 0 0 0 255 0 0 255 
147 109 4.01566 0 0 0 255 0 0 255 
149 109 4.11257 0 0 0 255 0 0 255 
151 109 4.18608 0 0 0 255 0 0 255 
153 109 4.15407 0 0 0 255 0 0 255 
156 109 4.06815 0 0 0 255 0 0 255 
158 109 4.06186 0 0 0 255 0 0 255 
160 109 4.03754 0 0 0 255 0 0 255 
162 109 3.88767 0 0 0 255 0 0 255 
165 109 3.73641 0 0 0 255 0 0 255 
167 109 3.43488 0 0 0 255 0 0 255 
169 109 3.25661 0 0 0 255 0 0 255 
171 109 3.16566 0 0 0 255 0 0 255 
174 109 2.71779 0 0 0 255 0 0 255 
176 109 2.40287 0 0 0 255 0 0 255 
178 109 2.0918 0 0 0 255 0 0 255 
183 109 2.32827 0 0 0 255 0 0 255 
185 109 2.37326 0 0 0 255 0 0 255 
187 109 2.40406 0 0 0 255 0 0 255 
192 109 2.55719 0 0 0 255 0 0 255 
194 109 2.54962 0 0 0 255 0 0 255 
196 109 2.45241 0 0 0 255 0 0 255 
199 109 2.43375 0 0 0 255 0 0 255 
201 109 2.30876 0 0 0 255 0 0 255 
203 109 2.29153 0 0 0 255 0 0 255 
208 109 2.02278 0 0 0 255 0 0 255 
210 109 1.89938 0 0 0 255 0 0 255 
212 109 1.92175 0 0 0 255 0 0 255 
215 109 1.97359 0 0 0 255 0 0 255 
217 109 1.5522 0 0 0 255 0 0 255 
222 109 1.72271 0 0 0 255 0 0 255 
224 109 1.64458 0 0 0 255 0 0 255 
226 109 1.63559 0 0 0 255 0 0 255 
119 110 2.33783 0 0 0 255 0 0 255 
120 110 2.44688 0 0 0 255 0 0 255 
122 110 2.70969 0 0 0 255 0 0 255 
129 110 3.29443 0 0 0 255 0 0 255 
131 110 3.48056 0 0 0 255 0 0 255 
133 110 3.57154 0 0 0 255 0 0 255 
136 110 3.61818 0 0 0 255 0 0 255 
138 110 3.77787 0 0 0 255 0 0 255 
140 110 3.7062 0 0 0 255 0 0 255 
142 110 3.86983 0 0 0 255 0 0 255 
145 110 3.9681 0 0 0 255 0 0 255 
147 110 4.14367 0 0 0 255 0 0 255 
149 110 4.00241 0 0 0 255 0 0 255 
151 110 4.14844 0 0 0 255 0 0 255 
153 110 4.17384 0 0 0 255 0 0 255 
156 110 4.02513 0 0 0 255 0 0 255 
158 110 4.03123 0 0 0 255 0 0 255 
160 110 3.89972 0 0 0 255 0 0 255 
162 110 3.8284 0 0 0 255 0 0 255 
165 110 3.7075 0 0 0 255 0 0 255 
167 110 3.45173 0 0 0 255 0 0 255 
169 110 3.27382 0 0 0 255 0 0 255 
171 110 3.00239 0 0 0 255 0 0 255 
174 110 2.74481 0 0 0 255 0 0 255 
176 110 2.38009 0 0 0 255 0 0 255 
178 110 2.027 0 0 0 255 0 0 255 
183 110 2.38189 0 0 0 255 0 0 255 
185 110 2.37985 0 0 0 255 0 0 255 
187 110 2.48722 0 0 0 255 0 0 255 
192 110 2.38466 0 0 0 255 0 0 255 
194 110 2.53708 0 0 0 255 0 0 255 
196 110 2.4217 0 0 0 255 0 0 255 
199 110 2.42593 0 0 0 255 0 0 255 
201 110 2.27877 0 0 0 255 0 0 255 
203 110 2.27473 0 0 0 255 0 0 255 
205 110 2.26519 0 0 0 255 0 0 255 
206 110 2.06086 0 0 0 255 0 0 255 
208 110 2.11066 0 0 0 255 0 0 255 
210 110 1.90547 0 0 0 255 0 0 255 
212 110 1.91496 0 0 0 255 0 0 255 
215 110 1.75577 0 0 0 255 0 0 255 
217 110 1.60411 0 0 0 255 0 0 255 
222 110 1.7463 0 0 0 255 0 0 255 
224 110 1.68051 0 0 0 255 0 0 255 
226 110 1.54505 0 0 0 255 0 0 255 
120 111 3.25301 0 0 0 255 0 0 255 
122 111 2.48061 0 0 0 255 0 0 255 
124 111 2.75503 0 0 0 255 0 0 255 
129 111 3.31308 0 0 0 255 0 0 255 
131 111 3.51962 0 0 0 255 0 0 255 
133 111 3.53681 0 0 0 255 0 0 255 
136 111 3.61595 0 0 0 255 0 0 255 
138 111 3.67654 0 0 0 255 0 0 255 
140 111 3.66327 0 0 0 255 0 0 255 
142 111 3.87857 0 0 0 255 0 0 255 
145 111 3.85011 0 0 0 255 0 0 255 
147 111 3.94496 0 0 0 255 0 0 255 
149 111 3.989 0 0 0 255 0 0 255 
151 111 4.01302 0 0 0 255 0 0 255 
153 111 4.02852 0 0 0 255 0 0 255 
156 111 4.04729 0 0 0 255 0 0 255 
158 111 3.87235 0 0 0 255 0 0 255 
160 111 3.82813 0 0 0 255 0 0 255 
162 111 3.81619 0 0 0 255 0 0 255 
165 111 3.50026 0 0 0 255 0 0 255 
167 111 3.26619 0 0 0 255 0 0 255 
169 111 3.18595 0 0 0 255 0 0 255 
171 111 2.9749 0 0 0 255 0 0 255 
174 111 2.58217 0 0 0 255 0 0 255 
176 111 2.25055 0 0 0 255 0 0 255 
178 111 1.89113 0 0 0 255 0 0 255 
183 111 2.4351 0 0 0 255 0 0 255 
185 111 2.43145 0 0 0 255 0 0 255 
187 111 2.50551 0 0 0 255 0 0 255 
192 111 2.53441 0 0 0 255 0 0 255 
194 111 2.58969 0 0 0 255 0 0 255 
196 111 2.43568 0 0 0 255 0 0 255 
199 111 2.41325 0 0 0 255 0 0 255 
201 111 2.28888 0 0 0 255 0 0 255 
203 111 2.22935 0 0 0 255 0 0 255 
206 111 2.12347 0 0 0 255 0 0 255 
208 111 2.07179 0 0 0 255 0 0 255 
210 111 1.74703 0 0 0 255 0 0 255 
212 111 1.72946 0 0 0 255 0 0 255 
215 111 1.56766 0 0 0 255 0 0 255 
217 111 1.5238 0 0 0 255 0 0 255 
222 111 1.42814 0 0 0 255 0 0 255 
224 111 1.44148 0 0 0 255 0 0 255 
226 111 1.52945 0 0 0 255 0 0 255 
229 111 1.61575 0 0 0 255 0 0 255 
231 111 1.59484 0 0 0 255 0 0 255 
111 112 3.38199 0 0 0 255 0 0 255 
113 112 3.47384 0 0 0 255 0 0 255 
115 112 3.39183 0 0 0 255 0 0 255 
120 112 3.25861 0 0 0 255 0 0 255 
122 112 3.13671 0 0 0 255 0 0 255 
124 112 2.74778 0 0 0 255 0 0 255 
129 112 3.30802 0 0 0 255 0 0 255 
131 112 3.37741 0 0 0 255 0 0 255 
133 112 3.49554 0 0 0 255 0 0 255 
136 112 3.63205 0 0 0 255 0 0 255 
138 112 3.65044 0 0 0 255 0 0 255 
140 112 3.68678 0 0 0 255 0 0 255 
142 112 3.80283 0 0 0 255 0 0 255 
145 112 3.72769 0 0 0 255 0 0 255 
147 112 3.9211 0 0 0 255 0 0 255 
149 112 3.79149 0 0 0 255 0 0 255 
151 112 3.89033 0 0 0 255 0 0 255 
153 112 3.96582 0 0 0 255 0 0 255 
156 112 3.96701 0 0 0 255 0 0 255 
158 112 3.78387 0 0 0 255 0 0 255 
160 112 3.67636 0 0 0 255 0 0 255 
162 112 3.63827 0 0 0 255 0 0 255 
165 112 3.44733 0 0 0 255 0 0 255 
167 112 3.40467 0 0 0 255 0 0 255 
169 112 3.18347 0 0 0 255 0 0 255 
171 112 2.9039 0 0 0 255 0 0 255 
174 112 2.53944 0 0 0 255 0 0 255 
176 112 2.15622 0 0 0 255 0 0 255 
178 112 2.06938 0 0 0 255 0 0 255 
183 112 2.42066 0 0 0 255 0 0 255 
185 112 2.45267 0 0 0 255 0 0 255 
187 112 2.45641 0 0 0 255 0 0 255 
192 112 2.59394 0 0 0 255 0 0 255 
194 112 2.56894 0 0 0 255 0 0 255 
196 112 2.42615 0 0 0 255 0 0 255 
199 112 2.43451 0 0 0 255 0 0 255 
201 112 2.30162 0 0 0 255 0 0 255 
203 112 2.27861 0 0 0 255 0 0 255 
206 112 2.09161 0 0 0 255 0 0 255 
208 112 2.05176 0 0 0 255 0 0 255 
210 112 1.74 0 0 0 255 0 0 255 
212 112 1.6868 0 0 0 255 0 0 255 
215 112 1.77042 0 0 0 255 0 0 255 
217 112 1.58087 0 0 0 255 0 0 255 
222 112 1.61173 0 0 0 255 0 0 255 
224 112 1.46867 0 0 0 255 0 0 255 
226 112 1.56433 0 0 0 255 0 0 255 
229 112 1.29656 0 0 0 255 0 0 255 
231 112 1.39724 0 0 0 255 0 0 255 
106 113 3.32247 0 0 0 255 0 0 255 
111 113 3.49152 0 0 0 255 0 0 255 
113 113 3.43999 0 0 0 255 0 0 255 
115 113 3.43044 0 0 0 255 0 0 255 
120 113 3.28751 0 0 0 255 0 0 255 
122 113 3.22519 0 0 0 255 0 0 255 
124 113 3.13646 0 0 0 255 0 0 255 
129 113 3.00423 0 0 0 255 0 0 255 
131 113 3.26812 0 0 0 255 0 0 255 
133 113 3.30613 0 0 0 255 0 0 255 
136 113 3.53082 0 0 0 255 0 0 255 
138 113 3.67012 0 0 0 255 0 0 255 
140 113 3.60287 0 0 0 255 0 0 255 
142 113 3.70513 0 0 0 255 0 0 255 
145 113 3.82888 0 0 0 255 0 0 255 
147 113 3.87909 0 0 0 255 0 0 255 
149 113 3.78532 0 0 0 255 0 0 255 
151 113 3.9109 0 0 0 255 0 0 255 
153 113 3.79847 0 0 0 255 0 0 255 
156 113 3.78692 0 0 0 255 0 0 255 
158 113 3.75539 0 0 0 255 0 0 255 
160 113 3.64794 0 0 0 255 0 0 255 
162 113 3.53503 0 0 0 255 0 0 255 
165 113 3.34816 0 0 0 255 0 0 255 
167 113 3.15259 0 0 0 255 0 0 255 
169 113 2.9689 0 0 0 255 0 0 255 
171 113 2.7343 0 0 0 255 0 0 255 
174 113 2.43575 0 0 0 255 0 0 255 
176 113 2.07969 0 0 0 255 0 0 255 
178 113 2.07759 0 0 0 255 0 0 255 
183 113 2.46284 0 0 0 255 0 0 255 
185 113 2.42231 0 0 0 255 0 0 255 
187 113 2.52451 0 0 0 255 0 0 255 
190 113 2.53293 0 0 0 255 0 0 255 
192 113 2.59104 0 0 0 255 0 0 255 
194 113 2.45327 0 0 0 255 0 0 255 
196 113 2.43314 0 0 0 255 0 0 255 
199 113 2.42707 0 0 0 255 0 0 255 
201 113 2.18236 0 0 0 255 0 0 255 
203 113 2.23927 0 0 0 255 0 0 255 
206 113 2.12119 0 0 0 255 0 0 255 
208 113 2.07352 0 0 0 255 0 0 255 
210 113 1.76695 0 0 0 255 0 0 255 
212 113 1.69529 0 0 0 255 0 0 255 
213 113 1.66565 0 0 0 255 0 0 255 
215 113 1.77308 0 0 0 255 0 0 255 
217 113 1.38715 0 0 0 255 0 0 255 
219 113 1.48679 0 0 0 255 0 0 255 
220 113 1.23274 0 0 0 255 0 0 255 
222 113 1.46385 0 0 0 255 0 0 255 
224 113 1.51404 0 0 0 255 0 0 255 
226 113 1.40084 0 0 0 255 0 0 255 
229 113 1.54635 0 0 0 255 0 0 255 
231 113 1.40654 0 0 0 255 0 0 255 
106 114 3.44364 0 0 0 255 0 0 255 
111 114 3.441 0 0 0 255 0 0 255 
113 114 3.48218 0 0 0 255 0 0 255 
115 114 3.49473 0 0 0 255 0 0 255 
120 114 3.40842 0 0 0 255 0 0 255 
122 114 3.25451 0 0 0 255 0 0 255 
124 114 3.17154 0 0 0 255 0 0 255 
129 114 2.95152 0 0 0 255 0 0 255 
131 114 3.11576 0 0 0 255 0 0 255 
133 114 3.2651 0 0 0 255 0 0 255 
135 114 3.27464 0 0 0 255 0 0 255 
136 114 3.37396 0 0 0 255 0 0 255 
138 114 3.5463 0 0 0 255 0 0 255 
140 114 3.5995 0 0 0 255 0 0 255 
142 114 3.59989 0 0 0 255 0 0 255 
144 114 3.65651 0 0 0 255 0 0 255 
145 114 3.67232 0 0 0 255 0 0 255 
147 114 3.7059 0 0 0 255 0 0 255 
149 114 3.53622 0 0 0 255 0 0 255 
151 114 3.71838 0 0 0 255 0 0 255 
153 114 3.7123 0 0 0 255 0 0 255 
156 114 3.74001 0 0 0 255 0 0 255 
158 114 3.63655 0 0 0 255 0 0 255 
160 114 3.56754 0 0 0 255 0 0 255 
162 114 3.41508 0 0 0 255 0 0 255 
165 114 3.33867 0 0 0 255 0 0 255 
167 114 3.01097 0 0 0 255 0 0 255 
169 114 2.77351 0 0 0 255 0 0 255 
171 114 2.72384 0 0 0 255 0 0 255 
174 114 2.28197 0 0 0 255 0 0 255 
176 114 2.08738 0 0 0 255 0 0 255 
178 114 2.33917 0 0 0 255 0 0 255 
183 114 2.45729 0 0 0 255 0 0 255 
185 114 2.49749 0 0 0 255 0 0 255 
187 114 2.50461 0 0 0 255 0 0 255 
189 114 2.6089 0 0 0 255 0 0 255 
190 114 2.56141 0 0 0 255 0 0 255 
192 114 2.58432 0 0 0 255 0 0 255 
194 114 2.59116 0 0 0 255 0 0 255 
196 114 2.46948 0 0 0 255 0 0 255 
199 114 2.44001 0 0 0 255 0 0 255 
201 114 2.2422 0 0 0 255 0 0 255 
203 114 2.24972 0 0 0 255 0 0 255 
206 114 2.04056 0 0 0 255 0 0 255 
208 114 1.92519 0 0 0 255 0 0 255 
210 114 1.68945 0 0 0 255 0 0 255 
213 114 1.47542 0 0 0 255 0 0 255 
215 114 1.60347 0 0 0 255 0 0 255 
217 114 1.31236 0 0 0 255 0 0 255 
220 114 1.1745 0 0 0 255 0 0 255 
222 114 1.41723 0 0 0 255 0 0 255 
224 114 1.31092 0 0 0 255 0 0 255 
229 114 1.32895 0 0 0 255 0 0 255 
231 114 1.4122 0 0 0 255 0 0 255 
106 115 3.5962 0 0 0 255 0 0 255 
111 115 3.60622 0 0 0 255 0 0 255 
113 115 3.52129 0 0 0 255 0 0 255 
115 115 3.48717 0 0 0 255 0 0 255 
120 115 3.49724 0 0 0 255 0 0 255 
122 115 3.37882 0 0 0 255 0 0 255 
124 115 3.30171 0 0 0 255 0 0 255 
126 115 3.2194 0 0 0 255 0 0 255 
129 115 2.73402 0 0 0 255 0 0 255 
131 115 2.84636 0 0 0 255 0 0 255 
133 115 3.02606 0 0 0 255 0 0 255 
135 115 3.17194 0 0 0 255 0 0 255 
138 115 3.36311 0 0 0 255 0 0 255 
140 115 3.41827 0 0 0 255 0 0 255 
142 115 3.44848 0 0 0 255 0 0 255 
144 115 3.59829 0 0 0 255 0 0 255 
147 115 3.49001 0 0 0 255 0 0 255 
149 115 3.53643 0 0 0 255 0 0 255 
151 115 3.67182 0 0 0 255 0 0 255 
153 115 3.60058 0 0 0 255 0 0 255 
156 115 3.54528 0 0 0 255 0 0 255 
158 115 3.56559 0 0 0 255 0 0 255 
160 115 3.38283 0 0 0 255 0 0 255 
162 115 3.34189 0 0 0 255 0 0 255 
165 115 3.11647 0 0 0 255 0 0 255 
167 115 2.91711 0 0 0 255 0 0 255 
169 115 2.71959 0 0 0 255 0 0 255 
171 115 2.65129 0 0 0 255 0 0 255 
174 115 2.09521 0 0 0 255 0 0 255 
176 115 2.22588 0 0 0 255 0 0 255 
178 115 2.32512 0 0 0 255 0 0 255 
183 115 2.50628 0 0 0 255 0 0 255 
185 115 2.47991 0 0 0 255 0 0 255 
187 115 2.5181 0 0 0 255 0 0 255 
189 115 2.53533 0 0 0 255 0 0 255 
192 115 2.59192 0 0 0 255 0 0 255 
194 115 2.6039 0 0 0 255 0 0 255 
196 115 2.4655 0 0 0 255 0 0 255 
199 115 2.37392 0 0 0 255 0 0 255 
201 115 2.21985 0 0 0 255 0 0 255 
203 115 2.114 0 0 0 255 0 0 255 
206 115 2.07768 0 0 0 255 0 0 255 
208 115 1.84326 0 0 0 255 0 0 255 
210 115 1.66821 0 0 0 255 0 0 255 
213 115 1.51622 0 0 0 255 0 0 255 
215 115 1.32321 0 0 0 255 0 0 255 
217 115 1.31998 0 0 0 255 0 0 255 
220 115 1.36536 0 0 0 255 0 0 255 
222 115 1.42655 0 0 0 255 0 0 255 
224 115 1.19018 0 0 0 255 0 0 255 
229 115 1.3141 0 0 0 255 0 0 255 
231 115 1.20725 0 0 0 255 0 0 255 
104 116 3.47548 0 0 0 255 0 0 255 
106 116 3.50514 0 0 0 255 0 0 255 
109 116 3.60279 0 0 0 255 0 0 255 
111 116 3.64576 0 0 0 255 0 0 255 
113 116 3.67841 0 0 0 255 0 0 255 
115 116 3.53687 0 0 0 255 0 0 255 
118 116 3.51876 0 0 0 255 0 0 255 
120 116 3.55054 0 0 0 255 0 0 255 
122 116 3.4487 0 0 0 255 0 0 255 
124 116 3.50697 0 0 0 255 0 0 255 
126 116 3.32212 0 0 0 255 0 0 255 
127 116 3.42835 0 0 0 255 0 0 255 
129 116 3.33299 0 0 0 255 0 0 255 
131 116 2.76753 0 0 0 255 0 0 255 
133 116 3.00321 0 0 0 255 0 0 255 
135 116 3.08058 0 0 0 255 0 0 255 
138 116 3.28786 0 0 0 255 0 0 255 
140 116 3.3427 0 0 0 255 0 0 255 
142 116 3.60403 0 0 0 255 0 0 255 
144 116 3.44145 0 0 0 255 0 0 255 
147 116 3.49621 0 0 0 255 0 0 255 
149 116 3.48592 0 0 0 255 0 0 255 
151 116 3.49728 0 0 0 255 0 0 255 
153 116 3.54667 0 0 0 255 0 0 255 
156 116 3.50106 0 0 0 255 0 0 255 
158 116 3.39757 0 0 0 255 0 0 255 
160 116 3.52862 0 0 0 255 0 0 255 
162 116 3.32339 0 0 0 255 0 0 255 
165 116 3.13536 0 0 0 255 0 0 255 
167 116 2.95374 0 0 0 255 0 0 255 
169 116 2.73637 0 0 0 255 0 0 255 
174 116 2.08867 0 0 0 255 0 0 255 
176 116 2.12883 0 0 0 255 0 0 255 
178 116 2.57194 0 0 0 255 0 0 255 
180 116 2.63121 0 0 0 255 0 0 255 
183 116 2.50072 0 0 0 255 0 0 255 
185 116 2.65092 0 0 0 255 0 0 255 
187 116 2.54326 0 0 0 255 0 0 255 
189 116 2.54174 0 0 0 255 0 0 255 
192 116 2.5972 0 0 0 255 0 0 255 
194 116 2.57138 0 0 0 255 0 0 255 
196 116 2.40879 0 0 0 255 0 0 255 
199 116 2.28331 0 0 0 255 0 0 255 
201 116 2.20808 0 0 0 255 0 0 255 
203 116 2.07989 0 0 0 255 0 0 255 
206 116 1.94871 0 0 0 255 0 0 255 
208 116 1.80052 0 0 0 255 0 0 255 
210 116 1.6485 0 0 0 255 0 0 255 
213 116 1.2829 0 0 0 255 0 0 255 
215 116 1.30676 0 0 0 255 0 0 255 
217 116 1.27136 0 0 0 255 0 0 255 
220 116 1.1578 0 0 0 255 0 0 255 
222 116 1.19295 0 0 0 255 0 0 255 
224 116 1.21254 0 0 0 255 0 0 255 
229 116 1.18557 0 0 0 255 0 0 255 
231 116 1.10346 0 0 0 255 0 0 255 
102 117 3.48726 0 0 0 255 0 0 255 
104 117 3.57388 0 0 0 255 0 0 255 
106 117 3.60409 0 0 0 255 0 0 255 
109 117 3.63175 0 0 0 255 0 0 255 
111 117 3.65043 0 0 0 255 0 0 255 
113 117 3.62486 0 0 0 255 0 0 255 
115 117 3.63968 0 0 0 255 0 0 255 
118 117 3.65787 0 0 0 255 0 0 255 
120 117 3.65493 0 0 0 255 0 0 255 
122 117 3.65682 0 0 0 255 0 0 255 
124 117 3.58808 0 0 0 255 0 0 255 
127 117 3.53441 0 0 0 255 0 0 255 
129 117 3.46464 0 0 0 255 0 0 255 
131 117 3.53981 0 0 0 255 0 0 255 
135 117 3.03054 0 0 0 255 0 0 255 
138 117 3.06974 0 0 0 255 0 0 255 
140 117 3.14569 0 0 0 255 0 0 255 
142 117 3.24702 0 0 0 255 0 0 255 
144 117 3.42409 0 0 0 255 0 0 255 
147 117 3.44042 0 0 0 255 0 0 255 
149 117 3.31132 0 0 0 255 0 0 255 
151 117 3.45119 0 0 0 255 0 0 255 
153 117 3.354 0 0 0 255 0 0 255 
156 117 3.47172 0 0 0 255 0 0 255 
158 117 3.31308 0 0 0 255 0 0 255 
160 117 3.1878 0 0 0 255 0 0 255 
162 117 3.14336 0 0 0 255 0 0 255 
165 117 2.98226 0 0 0 255 0 0 255 
167 117 2.7178 0 0 0 255 0 0 255 
169 117 2.51762 0 0 0 255 0 0 255 
174 117 2.07322 0 0 0 255 0 0 255 
176 117 2.32956 0 0 0 255 0 0 255 
178 117 2.39341 0 0 0 255 0 0 255 
180 117 2.61281 0 0 0 255 0 0 255 
183 117 2.50919 0 0 0 255 0 0 255 
185 117 2.51575 0 0 0 255 0 0 255 
187 117 2.52764 0 0 0 255 0 0 255 
189 117 2.56977 0 0 0 255 0 0 255 
192 117 2.54443 0 0 0 255 0 0 255 
194 117 2.59477 0 0 0 255 0 0 255 
196 117 2.51564 0 0 0 255 0 0 255 
199 117 2.28366 0 0 0 255 0 0 255 
201 117 2.29726 0 0 0 255 0 0 255 
203 117 2.08682 0 0 0 255 0 0 255 
206 117 2.05343 0 0 0 255 0 0 255 
208 117 1.71875 0 0 0 255 0 0 255 
210 117 1.42641 0 0 0 255 0 0 255 
213 117 1.19143 0 0 0 255 0 0 255 
215 117 1.31083 0 0 0 255 0 0 255 
217 117 1.10364 0 0 0 255 0 0 255 
220 117 1.1609 0 0 0 255 0 0 255 
222 117 1.29993 0 0 0 255 0 0 255 
224 117 1.22275 0 0 0 255 0 0 255 
229 117 1.08711 0 0 0 255 0 0 255 
231 117 1.02041 0 0 0 255 0 0 255 
102 118 3.60623 0 0 0 255 0 0 255 
104 118 3.60639 0 0 0 255 0 0 255 
106 118 3.60782 0 0 0 255 0 0 255 
109 118 3.61273 0 0 0 255 0 0 255 
111 118 3.72092 0 0 0 255 0 0 255 
113 118 3.67601 0 0 0 255 0 0 255 
115 118 3.54362 0 0 0 255 0 0 255 
118 118 3.66422 0 0 0 255 0 0 255 
120 118 3.56125 0 0 0 255 0 0 255 
122 118 3.6636 0 0 0 255 0 0 255 
124 118 3.69361 0 0 0 255 0 0 255 
127 118 3.53407 0 0 0 255 0 0 255 
129 118 3.49064 0 0 0 255 0 0 255 
131 118 3.21305 0 0 0 255 0 0 255 
138 118 2.91894 0 0 0 255 0 0 255 
140 118 3.06599 0 0 0 255 0 0 255 
